# .PCD v0.7 - Point Cloud Data file format
VERSION 0.7
FIELDS x y z
SIZE 4 4 4
TYPE F F F
COUNT 1 1 1
WIDTH 1414
HEIGHT 1
VIEWPOINT 0 0 0 1 0 0 0
POINTS 1414
DATA ascii
-0.77409703 0.0661145 0.0066711898
-0.76489002 0.0615457 0.0093311695
1.0426 0.25566399 -0.023357499
-0.75931799 0.079195403 -0.00243411
-0.83700502 0.100171 -0.018681601
-0.79124999 0.066583298 0.00129475
0.70985198 0.17419299 0.0026781999
-0.82389998 0.078603402 -0.0112236
0.71494901 0.170211 -0.00021674699
-0.83502299 0.059268899 -0.0035069101
-0.78610098 0.035766501 0.0113115
0.71723801 0.133828 0.0145978
-0.75865901 0.0565532 -0.00361
-0.78792 0.0282923 0.0066931099
-0.79004002 0.045482401 -0.00527828
-0.78443003 0.054648999 -0.0124059
-0.75679898 0.019106399 0.0079803299
0.59325498 0.093927898 0.019509999
-0.82782298 0.0261833 -0.00105229
-0.820463 0.028233601 -0.0060427799
-0.75028598 0.029879799 -0.0043419902
0.77108902 0.123233 0.0025126501
-0.81270498 0.023357101 -0.0052749799
-0.78154999 0.0091118803 -0.00080524798
-0.78668898 0.0057584899 -0.0037946799
0.358174 -0.0388956 0.0652631
1.05189 0.151951 -0.0165279
-0.81474 -0.0166381 0.00338921
-0.81974 0.0143519 -0.0169213
0.56667799 0.00163304 0.035532899
0.58046001 0.0155843 0.028143199
-0.79781097 -0.0154959 -0.0079196002
0.33713001 -0.037796602 0.046934001
0.34690601 -0.034129001 0.043093398
-0.79254699 -0.057368699 0.00709701
-0.79548299 -0.0739308 0.0117611
1.10677 0.109743 -0.031880699
-0.79952002 -0.074668698 0.00051555899
-0.74335098 -0.11765 0.026157301
-0.77336299 -0.092776403 0.0075024199
-0.76460099 -0.095490202 0.0096070701
0.44621101 -0.070679799 0.0383275
0.469295 -0.074466802 0.039008699
-0.77383399 -0.097415201 0.0058408598
0.43557 -0.083811097 0.040888
-0.71944201 -0.0910431 0.00139589
0.34610999 -0.112428 0.0526338
-0.74090201 -0.14045499 0.0282115
0.336072 -0.110542 0.0485586
0.462084 -0.091328204 0.0415725
-0.74124098 -0.094243601 -0.00184532
0.37810001 -0.100983 0.041488402
-0.81511998 -0.103476 -0.00146004
-0.74607903 -0.113668 0.0047191698
-0.79867798 -0.078377701 -0.021069201
-0.77333701 -0.121949 0.0042955298
-0.73723799 -0.150501 0.023057699
-0.78559899 -0.131612 0.0049427301
-0.75338203 -0.121762 -0.0074111
0.51699603 -0.136041 0.045466401
0.69818801 -0.068522401 0.0094822198
-0.73359197 -0.164331 0.0102396
0.36576 -0.160606 0.0454662
0.74018401 -0.086391501 0.0112286
0.57094699 -0.12631799 0.0278487
-0.78370798 -0.149865 -0.0051225098
-0.77358401 -0.15294901 -0.0053268401
0.48776001 -0.144521 0.028831899
0.74472898 -0.093663901 0.0023934599
-0.73489898 -0.195187 0.010483
-0.71949703 -0.201882 0.0129866
-0.71789497 -0.19017801 0.0055852402
-0.76659602 -0.17954201 -0.0079755997
-0.69774503 -0.180124 -0.0053103301
-0.77218199 -0.193094 -0.0017443401
-0.76111102 -0.173043 -0.0144946
-0.73276198 -0.196996 0.0021943899
-0.70514899 -0.18613499 -0.0067854398
-0.77636099 -0.19862901 -0.0034214
-0.70218199 -0.216235 0.0078466302
-0.74134201 -0.204937 -0.0077223699
0.60687101 -0.167264 0.0097348001
0.76742202 -0.150093 0.0032551601
-0.72410798 -0.208784 -0.0074912598
-0.68766499 -0.21494301 -0.0023574401
-0.74632299 -0.238297 0.0089044096
0.742028 -0.17089 0.010605
-0.71755999 -0.25274399 0.017071299
-0.70799202 -0.25329399 0.017733401
-0.70728302 -0.23883501 0.0078458004
-0.68882501 -0.218455 -0.0050019398
0.35437301 -0.246819 0.046192199
0.64274198 -0.205707 0.028214101
0.64514798 -0.20838401 0.030063201
0.66949302 -0.179464 0.0114601
0.33929801 -0.238996 0.037930202
-0.72009301 -0.22401799 -0.0076997201
-0.77742702 -0.235301 -0.0039895
-0.75674999 -0.232647 -0.00778923
-0.69286102 -0.23804601 -0.0020760701
-0.71042103 -0.24774 0.0013920499
-0.70650297 -0.241244 -0.0028134901
0.58550298 -0.223423 0.0241121
-0.75514698 -0.24645799 -0.0062460401
-0.70979297 -0.247908 -0.0034988101
-0.731592 -0.263538 0.00364218
-0.71550399 -0.268181 0.0076472298
0.58697802 -0.229295 0.0201369
-0.68060899 -0.25455299 -0.0058211698
0.61331302 -0.229819 0.0155248
0.375534 -0.27943 0.040116802
0.38972399 -0.26226401 0.0287282
-0.68310398 -0.25483 -0.0107311
0.61305702 -0.23928501 0.0136822
-0.70212698 -0.295452 0.0114192
0.58965898 -0.25577101 0.021666899
-0.77052999 -0.28103501 -0.00307592
-0.702986 -0.29290199 0.0044468101
-0.69018 -0.286441 -0.0020269
0.60593599 -0.26356301 0.019095501
-0.72480297 -0.29632801 0.00083529798
-0.70406902 -0.29732201 0.00225187
0.81699997 -0.22626001 -0.0040280102
-0.74725401 -0.293818 -0.0038881099
0.145083 -0.317081 0.0380009
0.15160801 -0.320638 0.040756099
0.60596198 -0.28340501 0.0276064
0.61742502 -0.27696899 0.023331299
-0.72779799 -0.30262399 0.00028472301
0.40427399 -0.306692 0.035681099
0.58420599 -0.28324199 0.024067501
0.15135901 -0.32606 0.039161101
0.58250302 -0.28499401 0.019879
1.16598 -0.184075 -0.035932999
-0.70013398 -0.32115099 0.0065136999
-0.69135201 -0.324828 0.0042212899
-0.70509899 -0.327048 0.0028419599
-0.67369598 -0.32533401 2.4003801e-05
1.01924 -0.222436 -0.0282156
-0.71529502 -0.325863 -0.00349714
0.193836 -0.36082301 0.046393499
0.31150499 -0.33465201 0.030474201
-0.74213302 -0.32206401 -0.0096160499
0.174091 -0.35542101 0.0391648
0.77547002 -0.26593399 -0.0094786296
-0.72996902 -0.31564701 -0.016478401
0.22333799 -0.36346599 0.0437801
0.23158699 -0.36006299 0.0415591
0.24615 -0.347543 0.0326671
0.25960499 -0.35139701 0.035715401
1.13332 -0.240381 -0.021932401
-0.754031 -0.33845401 -0.0035177399
0.31721699 -0.32721299 0.016875099
-0.70647198 -0.350308 0.00388857
0.18359999 -0.35315001 0.029469701
0.20623399 -0.36400101 0.037953701
0.229414 -0.35960999 0.0355497
1.15294 -0.239889 -0.027758701
-0.678505 -0.34163901 -0.0042340499
0.250525 -0.32742199 0.0093630003
1.1305 -0.25295699 -0.022058301
-0.719899 -0.350225 -0.00207881
-0.69107401 -0.331211 -0.015055
0.13741501 -0.41870099 0.071380503
0.66922098 -0.31929901 0.011877
0.81682301 -0.28669399 -0.0083960705
1.06824 -0.20666 -0.063938498
-0.69733697 -0.348102 -0.0084394598
0.23504899 -0.37490699 0.035809401
0.81524003 -0.294929 -0.0082830498
-0.71831799 -0.36278099 -0.00069959398
0.142877 -0.41625601 0.061660599
0.68038303 -0.32299101 0.00597216
1.16087 -0.247839 -0.037488699
-0.72946602 -0.356841 -0.0080724498
-0.67502999 -0.374558 0.0067894198
1.04623 -0.27589801 -0.0229454
-0.752756 -0.372868 0.00050337001
0.135984 -0.40369499 0.0464903
-0.709014 -0.37696901 0.0023565099
-0.68468201 -0.379327 0.0048297499
0.14364401 -0.403593 0.043925099
0.87008399 -0.33583701 0.0114838
1.17006 -0.266238 -0.033291802
-0.74357599 -0.38407499 0.0038075901
-0.73663503 -0.37162101 -0.0052133999
-0.72265297 -0.38002399 0.00132642
0.12581301 -0.40568 0.042158101
0.155424 -0.40131301 0.039793201
0.62990701 -0.35159001 0.0142392
0.113726 -0.41441801 0.045526601
0.20498499 -0.39303201 0.031954501
-0.70862401 -0.40172699 0.0125501
0.20482901 -0.398478 0.030468101
0.63526601 -0.35188001 0.0056403298
1.1821899 -0.275884 -0.038575001
-0.773579 -0.40641201 0.0042532599
-0.71188301 -0.400444 0.00095587497
-0.69762403 -0.39496601 -0.0025247301
0.20141999 -0.417445 0.036121901
-0.67510903 -0.398361 -0.0026452499
-0.70479798 -0.407653 0.0012535501
0.439042 -0.40732601 0.027999699
0.44790301 -0.40434501 0.0261577
-0.70105898 -0.41432101 0.0012104301
-0.64433199 -0.40182701 -0.0072717201
0.46461299 -0.39132699 0.0106854
-0.74501199 -0.42118999 0.0025998701
-0.73132098 -0.410198 -0.00573924
0.44165999 -0.409906 0.021686099
-0.64312297 -0.39909601 -0.017819099
0.68561202 -0.40590101 0.0178994
0.70640802 -0.387337 0.0037942701
0.65249598 -0.41156101 0.018670101
-0.98293501 -0.40080401 -0.033023
-0.70877498 -0.42489901 -0.0074871001
0.655671 -0.41543201 0.0128413
-0.63586301 -0.423253 -0.0124675
0.60610998 -0.42871201 0.019201601
0.70111799 -0.415014 0.0099177798
-0.97648603 -0.414058 -0.030686401
-0.70989501 -0.438245 -0.00523174
0.32196599 -0.44870999 0.0256085
0.33398199 -0.44576299 0.023892
1.1242 -0.37544101 -0.0152882
0.113038 -0.475898 0.040013202
0.76776701 -0.40378499 -0.0070623402
-0.32286501 -0.43957201 -0.00475054
0.136783 -0.484157 0.041403599
-0.74157798 -0.44676599 -0.0104511
-0.70856899 -0.45292801 -0.00456014
-0.73340499 -0.44076601 -0.017981101
-0.325744 -0.450156 -0.0020651401
-0.230636 -0.42727801 -0.0183198
0.079480797 -0.47516701 0.026935199
0.13099299 -0.47009799 0.0239571
0.62410599 -0.44770199 0.0163284
-0.931723 -0.426303 -0.0367723
0.60588199 -0.448816 0.0136681
-0.38990101 -0.460971 -0.000386915
0.11052 -0.48431399 0.029378399
0.117115 -0.48689899 0.0317492
0.86055702 -0.40007201 -0.023778699
-0.71993703 -0.47490901 0.00155969
-0.62884003 -0.45267099 -0.0143445
0.59956402 -0.45876899 0.0152038
-0.71310699 -0.47192699 -0.0032935799
-0.653979 -0.48063701 0.0047100601
-0.65682501 -0.46163499 -0.011093
-0.647654 -0.4596 -0.012413
-0.63939399 -0.46231401 -0.0097384704
-0.42065799 -0.45485401 -0.0119375
0.219356 -0.483188 0.0244355
-0.70031798 -0.46297601 -0.013575
-0.47197399 -0.48186001 0.0036007101
-0.68067199 -0.475638 -0.0085449703
-0.64991897 -0.46437401 -0.0172596
0.120473 -0.51361799 0.0388464
-0.59630102 -0.50084901 0.0086019104
-0.72385699 -0.478466 -0.016080201
-0.68513697 -0.49466801 -0.00122933
-0.62216097 -0.49761501 0.0023445699
0.10888 -0.52581298 0.040213302
-0.74413502 -0.484754 -0.0135606
-0.74582899 -0.50245601 -0.00192408
-0.72968102 -0.497513 -0.00600752
-0.61213201 -0.52643597 0.020604299
-0.71310699 -0.51190901 0.00398297
-0.61318499 -0.49877399 -0.0054700798
-0.37191701 -0.487333 -0.0101808
-0.097640403 -0.509601 0.0139875
0.69767398 -0.493478 0.0114687
-0.376293 -0.50493699 -0.00137024
-0.70691001 -0.51438498 -0.0022954501
0.656308 -0.51310498 0.021030899
0.689466 -0.50488597 0.0143988
-0.48865199 -0.49789301 -0.0156551
-0.70517099 -0.50573498 -0.0154546
-0.62915301 -0.51488 -0.0066124201
-0.70501101 -0.52503699 -0.0051777102
-0.54399401 -0.51251799 -0.0132051
-0.552073 -0.52667201 -0.0100568
-0.54860997 -0.52202302 -0.0170883
0.224705 -0.52881902 0.00166431
-0.27617699 -0.53201002 -0.0069355499
-0.53218198 -0.527013 -0.018288899
-0.28281701 -0.53634602 -0.0061625
0.220431 -0.54554099 0.010095
-0.96199101 -0.49610499 -0.055788901
-0.55426699 -0.53750801 -0.0158528
-0.34659499 -0.54770702 -0.0032288199
0.58768201 -0.55190402 0.014801
-0.97543597 -0.52658302 -0.035491399
-0.27015701 -0.54209101 -0.0104258
-0.595047 -0.55498201 -0.0067622401
-0.55771899 -0.55072403 -0.0100401
-0.75942302 -0.55367702 -0.0139686
-0.75157797 -0.55574501 -0.0118697
-0.67248702 -0.56237501 -0.0073365499
-0.53875101 -0.55482298 -0.0120469
-0.37087199 -0.56073099 -0.00483156
-0.75838602 -0.56625599 -0.00861328
0.95067799 -0.55449599 0.00560258
-0.75988698 -0.569911 -0.0114273
-0.69745302 -0.593853 0.0116774
-0.50256401 -0.58341497 0.0043290998
-0.26428801 -0.55706698 -0.0156246
-0.69751197 -0.594935 0.0063843601
-0.95087498 -0.56406301 -0.0287818
-0.92594302 -0.55929202 -0.0325795
0.0236557 -0.59359503 0.0122988
-0.334598 -0.58450001 -0.0076208701
-0.58396798 -0.57140398 -0.026171699
-0.317195 -0.57578498 -0.0216903
-0.57920998 -0.58840197 -0.016775699
-0.33323699 -0.60232198 -0.00078238099
0.24518 -0.60782099 0.0118065
0.29869899 -0.602332 0.0071630101
0.92029297 -0.58156699 -0.0083091203
-0.64556903 -0.59860998 -0.0144629
-0.31354699 -0.60653502 -0.00277985
-0.29922101 -0.59183598 -0.0162811
-0.52254498 -0.59208602 -0.022335101
0.92049903 -0.58735901 -0.0100326
0.803128 -0.57804501 -0.023881299
-0.50210702 -0.61663997 -0.0052185999
-0.0821459 -0.61773503 0.00078816799
0.91235399 -0.59338599 -0.0116761
1.09475 -0.59168601 -0.0150672
-0.58055103 -0.61049402 -0.021531999
1.0586801 -0.62028098 0.0044354801
-0.63837999 -0.621086 -0.0151778
-0.63092399 -0.62298399 -0.0132564
-0.38401699 -0.62928301 -0.0047145202
-0.696271 -0.590904 -0.0483624
-0.265506 -0.619663 -0.015732501
-0.25484601 -0.62327701 -0.0122106
-0.083238699 -0.63890201 0.0046301
-0.131321 -0.64781302 0.0093713598
0.76844102 -0.63553101 0.0056004198
-0.646613 -0.62098801 -0.025085799
-0.63409799 -0.62929201 -0.0201474
-0.25101101 -0.63802898 -0.0077437302
1.05223 -0.63060701 -0.0038743899
-0.31596199 -0.63753903 -0.0123457
-0.39289501 -0.66518199 0.0103471
-0.38900501 -0.65488303 0.00059883902
-0.31581599 -0.64156902 -0.0116654
-0.627451 -0.63953602 -0.020245301
-0.353984 -0.652973 -0.00403783
-0.671772 -0.65934199 -0.00399049
-0.65153003 -0.63958001 -0.023533
-0.25356901 -0.63981903 -0.020256899
-0.65609097 -0.65135098 -0.0150901
-0.31928599 -0.651914 -0.0115738
-0.30888301 -0.65431798 -0.0092385001
-0.65374702 -0.64152998 -0.0283818
-0.38246599 -0.666457 -0.00059903599
-0.355955 -0.66774601 0.00084924098
-0.62879097 -0.65706003 -0.018995799
-0.253656 -0.65637499 -0.0204078
1.0635999 -0.66172999 -0.0066548502
-0.54499602 -0.66415501 -0.018085301
1.12643 -0.62281603 -0.048619598
-0.390264 -0.67891598 -0.0049242401
-0.38372001 -0.67955601 -0.0044261701
-0.37620199 -0.67303097 -0.0115556
-0.66352201 -0.67809999 -0.0142573
-0.373487 -0.67656702 -0.0144715
-0.35479599 -0.68362099 -0.0068056402
-0.63240701 -0.65775901 -0.038720001
-0.65428001 -0.67406499 -0.025704101
-0.365915 -0.68670601 -0.0108333
-0.34861201 -0.69126803 -0.00641204
-0.34507799 -0.69894499 -0.0052816202
-0.65075898 -0.68921697 -0.020230399
-0.35297599 -0.69628501 -0.0113165
0.51222098 -0.70069498 -0.0031901
1.0297199 -0.69265598 -0.0091541298
-0.64421499 -0.69161201 -0.020660801
-0.373941 -0.69570398 -0.0155981
1.05502 -0.69521397 -0.0106127
-0.54170698 -0.68739802 -0.027979299
-0.346957 -0.70015103 -0.0140498
-0.36631101 -0.705477 -0.0120767
0.342026 -0.714652 -0.00015888301
1.01481 -0.70995897 -0.0029285001
-0.52966702 -0.69895202 -0.022872301
-0.34649199 -0.70802802 -0.0125315
0.336723 -0.72254598 0.0014430101
0.348427 -0.71487099 -0.0069288202
1.00569 -0.710482 -0.0102126
1.01285 -0.71726799 -0.0067734402
1.02701 -0.73068798 0.0079546701
0.334463 -0.72587502 -0.0026313199
1.00104 -0.716869 -0.0111733
1.05379 -0.722857 -0.0039410498
-0.66717899 -0.72164202 -0.0130903
-0.65753299 -0.724922 -0.0129322
0.32484499 -0.72904098 -0.0059618498
1.0008399 -0.73808998 0.0041661798
-0.92580098 -0.70216501 -0.041802101
0.97083998 -0.72716099 -0.0119603
-0.52418202 -0.72573203 -0.0188444
1.15684 -0.59706402 -0.162302
-0.634 -0.73928797 -0.0111004
-0.55501002 -0.728396 -0.0306674
-0.53666699 -0.732086 -0.026213501
-0.51858503 -0.75002402 -0.0064111399
-0.29764599 -0.67851698 -0.089754902
-0.55904102 -0.74239802 -0.0260152
-0.55021399 -0.74033397 -0.028101699
-0.281151 -0.77411097 0.00627717
0.987625 -0.77992898 0.0106781
-0.390984 -0.76550198 -0.0071509201
-0.073318198 -0.76710701 -0.0059026401
-0.28644001 -0.73754299 -0.042801701
0.68891501 -0.78929901 0.0144762
-0.54433298 -0.75114501 -0.0304376
-0.307212 -0.75417399 -0.027432701
0.96522999 -0.80150998 0.0240274
0.968297 -0.80476397 0.0280647
-0.415048 -0.77364999 -0.0124515
-0.325789 -0.77907997 -0.0060781301
-0.40230799 -0.77647901 -0.0129692
-0.51329499 -0.768516 -0.025825201
0.75501001 -0.801925 0.0088044899
-0.71284199 -0.77438802 -0.022010099
0.48561901 -0.780846 -0.0187873
-0.38606301 -0.77586401 -0.0248251
-0.70404202 -0.77920502 -0.0235826
-0.39801699 -0.80082703 0.00074582401
0.15163399 -0.79235202 -0.0151411
0.50898802 -0.78635103 -0.0282878
-0.36189499 -0.79304898 -0.0199534
-0.172666 -0.80487901 -0.0108683
0.14664599 -0.81304598 -0.0030320601
0.157492 -0.81216598 -0.0040390799
-0.36039501 -0.80566198 -0.012973
-0.609658 -0.80359203 -0.0176073
-0.16640399 -0.80909598 -0.0136904
-0.72623199 -0.805731 -0.021923101
-0.39426801 -0.82155401 -0.0084766597
-0.38390401 -0.83005399 -0.0058243298
-0.39313 -0.842538 0.0058653699
-0.36883101 -0.82977998 -0.0098535204
-0.13033099 -0.83959597 -0.0039966102
-0.53930199 -0.82469398 -0.023145299
-0.30337301 -0.828825 -0.019928999
-0.29593301 -0.81937498 -0.032109
-0.284484 -0.82512498 -0.0246906
-0.333437 -0.83008498 -0.022266701
-0.72303897 -0.82785302 -0.029261
-0.629296 -0.829687 -0.027943401
-0.34177601 -0.84120899 -0.016106
-0.084852099 -0.57319403 -0.36694199
-0.376674 -0.84009999 -0.025439501
-0.52292699 -0.84457201 -0.022414001
-0.63502699 -0.84905797 -0.0228172
-0.72785199 0.62461299 -0.0129125
-0.60402697 0.64972401 -0.0159485
-0.52656198 0.55768198 0.027008099
-0.438564 0.62802303 0.00066232
-0.20967899 -0.700014 0.54656702
0.39745501 0.63642102 0.022362901
0.50680399 0.647228 0.0226714
-0.586887 0.48873699 0.0201097
-0.246851 -0.73027003 0.55057901
0.73408097 0.67517501 0.0043846001
-0.197165 -0.72538298 0.54462999
-0.572366 0.522349 -0.0294553
-0.259101 -0.76055002 0.54984403
0.93977898 0.65853602 -0.0178253
-0.67439902 0.38817701 0.0093873097
0.60489398 0.53351802 0.0040672999
-0.22161099 -0.78544098 0.54949498
-0.67196202 0.31944501 0.0079405801
-0.292247 -0.81858802 0.55452198
-0.25806499 -0.805426 0.55017197
0.408923 0.41583401 0.0133849
0.52481401 0.45763499 -0.00119097
0.66517103 0.45908901 0.0042164898
0.972817 0.50264198 -0.0021733199
0.41655201 0.409704 -0.00314383
0.83740997 0.42012599 0.0111772
-0.280426 -0.84257501 0.55292302
-0.25698099 -0.837955 0.55190599
0.49355799 0.308566 0.0308431
-0.64718801 0.24428099 -0.0065685301
0.212469 0.048896201 0.12521601
0.63708502 0.31030199 0.015911
0.92579597 0.33363801 0.0163952
0.090163499 0.16519199 0.0104535
0.35899699 -0.00780115 0.112891
0.71576703 0.18472099 0.027353801
-0.61634398 0.123373 -0.016153799
0.212492 0.11894 0.0216268
0.085436903 0.094883397 0.0099553401
0.87250602 0.17344999 -0.00109684
-0.01047 0.0651519 0.0037382301
-0.57289398 -0.0108586 0.0056511099
-0.486467 -0.0113151 0.0095987003
0.139245 0.0063127601 0.023985
0.69740802 0.054028802 0.016582601
0.045804299 -0.029205101 0.021426501
-0.077537701 -0.0539257 0.011166
0.76189399 -0.0047097402 0.0119132
-0.549088 -0.076390497 -0.0129257
-0.463857 -0.074412003 -0.0102626
0.267524 -0.0511792 0.0027246
0.320032 -0.076137297 0.020436199
0.53985202 -0.074818 0.0251549
0.039781 -0.123273 0.0181209
0.59851402 -0.114046 0.031070299
-0.43012199 -0.153779 0.000163253
-0.049170099 -0.135985 0.0028634099
-0.51424402 -0.18079901 -0.0057125799
-0.14139999 -0.18945 0.0128606
0.55275202 -0.21217801 0.029814599
0.76520503 -0.180126 0.0117245
-0.31604701 -0.246851 0.0039554201
0.300192 -0.243177 0.021358499
-0.51543301 -0.26480201 -0.0111247
0.201378 -0.292539 0.0303399
0.749421 -0.247253 0.0134849
0.142836 -0.317031 0.0241822
-0.63362497 -0.43524399 0.064790301
0.0194999 -0.36916199 0.0365743
0.075572297 -0.359072 0.029522199
0.23034599 -0.33487701 0.0159817
0.53219002 -0.34256801 0.0302037
0.8222 -0.39675099 0.079535998
-0.0367168 -0.36007199 0.0039221901
0.79001498 -0.39479601 0.0499999
0.221406 -0.40882999 0.0272249
0.337277 -0.413629 0.033695899
-0.23739 -0.43593401 0.01229
0.64593297 -0.46373299 0.055811699
0.131317 -0.46313801 0.018652299
0.186555 -0.46741399 0.0245969
0.61168098 -0.453224 0.021347299
0.79229099 -0.420607 -0.00211001
0.94886398 -0.425515 0.00609589
-0.59000599 -0.47660601 -0.0080126198
-0.101244 -0.48915601 0.0116985
-0.016289899 -0.51897699 0.038832501
0.47541001 -0.49888301 0.032218501
-0.53026599 -0.51892602 0.0056904
-0.45694199 -0.50944102 -0.00119674
-0.37559199 -0.52811497 -0.0059884498
-0.129242 -0.56008703 0.022797201
-0.64601499 -0.549254 -0.0178834
-0.075971201 -0.57728601 0.0149385
0.50104398 -0.57667601 0.0231755
-0.69839698 -0.57118201 -0.0233704
-0.45572299 -0.589324 -0.0052325502
-0.34553599 -0.60379303 0.0116157
0.033529099 -0.61452901 0.028100699
0.750256 -0.58470201 0.0085914899
-0.104901 -0.63945299 0.022037599
-0.528184 -0.65503198 0.0038645801
-0.29778701 -0.63954902 -0.0083625298
0.84866297 -0.56727701 -0.066744499
-0.37088099 0.963817 -0.0011800301
-0.34903401 1.0059 -0.0151144
-0.32089099 0.98040402 -0.0046329601
0.120698 1.02052 0.0040982398
0.29450101 1.08306 -0.00911518
0.51682502 1.07525 0.00528624
0.561279 1.10137 -0.00176373
-0.90496802 0.95791101 -0.031463601
-0.868218 0.94821697 -0.0257995
-0.50112802 0.96779901 -0.0133678
-0.457789 0.96357697 -0.0096207196
-0.942568 0.89020002 -0.0126339
-0.92572498 0.93723601 -0.028903199
0.169857 0.97031999 0.0166649
0.189266 0.97643697 0.0112572
0.36191899 0.98753703 0.0166093
-0.99276501 0.85384399 -0.0102311
0.26245299 0.978082 0.0105938
0.18533801 0.932513 0.0148322
0.0982733 0.94603997 0.00140103
0.483127 0.938348 0.024163101
-0.94779098 0.85579503 -0.023798401
0.175715 0.913396 0.0127768
0.249219 0.87133998 0.028059701
0.40745699 0.94726598 0.0086223697
0.75589901 1.0005701 0.0065909401
0.42795199 0.95051199 0.0039677098
0.156334 0.88321799 0.0108379
0.19397099 0.904805 0.00502872
0.23428001 0.87367803 0.0184444
0.51427501 0.89567 0.0242562
-0.0904615 0.88087302 -0.00488505
0.274032 0.84098798 0.024554901
-0.151435 0.80597198 0.0120453
0.154469 0.85426801 0.0093175499
0.366395 0.85657698 0.0195211
0.47938699 0.912301 0.0036380701
-1.01723 0.72146499 -0.0075804801
-0.326417 0.75783598 0.0133767
-0.27317101 0.83344197 -0.0127495
0.1032 0.78124899 0.026388999
-0.46019 0.88919199 -0.0481642
-0.074326597 0.83506 -0.0072437301
-0.49682799 0.7245 0.0095823696
-0.14398 0.76291698 0.0129612
0.30561 0.837533 0.0065955101
0.33305201 0.75617498 0.039254598
0.42108199 0.80012202 0.0267903
-0.99798101 0.669577 0.0019421401
-0.67908603 0.73511302 -0.00767681
-0.62024301 0.76309103 -0.0151303
-0.161714 0.77775502 0.00215194
-0.127607 0.74737698 0.0156026
0.096062496 0.77592403 0.0111961
-0.31150401 0.72721797 0.0063046198
-0.990062 0.72993201 -0.033248
-0.33776301 0.72685802 0.00076025398
-0.163396 0.77564299 -0.0097017204
-0.13747799 0.74937302 0.00189067
0.29110801 0.74174201 0.0263217
0.40638301 0.78726798 0.0142005
0.44143501 0.82033902 0.0030918601
-0.51057702 0.71582001 -0.0073554702
-0.95755398 0.71176398 -0.032370601
-0.313788 0.715406 -0.00170627
-1.01209 0.62298 -0.0036643101
-0.342419 -0.68886298 0.55074102
-0.33501399 -0.69331801 0.55288702
-0.31425101 -0.67342401 0.54593801
-0.39365199 0.67930102 0.0045828801
-0.34162599 0.732701 -0.0142153
-1.0116301 0.65149599 -0.019245001
0.50324398 0.72815198 0.0248625
0.77886301 0.84802198 -0.0092685502
-0.94396001 0.62981802 -0.0105903
-0.571513 0.65693301 -0.0033591799
-0.0457973 0.71393102 -0.00040035599
0.315321 0.57917899 0.071365498
-0.33212599 -0.702479 0.55190301
-0.205143 0.65735197 0.0107679
0.442278 0.71757001 0.017911199
-0.76752198 0.68414098 -0.032327399
-0.698829 0.70157599 -0.036183398
-0.106483 0.64044398 0.0179756
0.46610299 0.73454797 0.0079150703
-0.202324 -0.66044402 0.538396
0.79057503 0.80378199 -0.00894472
-0.99932998 0.58473301 -0.0109756
-0.93449998 0.63893002 -0.0302324
-0.40900901 0.68234199 -0.021872001
-0.37792301 0.62717497 0.0020979601
0.71498603 0.76719803 -0.00234588
-0.94812202 0.60399902 -0.020592799
-0.91271901 0.63587397 -0.031970799
-0.031194899 0.651667 0.0045185802
0.41980901 0.67482603 0.017110201
-1.00975 0.596075 -0.0242319
-0.302158 -0.7119 0.54926002
-0.55308402 0.59479398 -0.00137114
0.75731599 0.77183801 -0.0115195
0.88862997 0.81295198 -0.0216411
-0.90863597 0.609182 -0.028804399
-0.40707499 0.63264 -0.0142272
-0.37941101 0.608127 -0.0026916701
-0.11623 0.62036502 0.0052164998
-0.091503799 0.59297001 0.0178397
0.82955599 0.733922 0.0034770099
-0.98011398 0.56498098 -0.018087599
-0.93476498 0.56671703 -0.0167522
-0.74163198 0.607849 -0.024268599
-0.33899999 -0.722386 0.548572
-0.25512099 -0.71516502 0.54964203
0.45743701 0.66703397 0.00842351
0.79145002 0.77348101 -0.019592799
-0.92015803 0.56143802 -0.017985599
-0.30155301 -0.72491902 0.54981297
-0.55552202 0.58015198 -0.0078682797
-0.20908201 0.65747702 -0.023350401
0.35193199 0.58731902 0.032732099
0.54870498 0.64285803 0.0191525
0.75065303 0.75908601 -0.019818099
-0.32434699 -0.73756498 0.55241501
-0.12664001 0.59382403 -0.00167328
-0.109906 0.57965797 0.0052274298
0.71685898 0.72729599 -0.017658699
-0.29861999 0.56137902 -0.000186113
-0.17522 0.52941 0.0192289
-0.25246099 -0.72772199 0.54702902
-0.394247 0.61559403 -0.032024499
0.777632 0.68102199 -0.0045752302
-0.98762 0.48120499 -0.0068606301
-0.88535601 0.53369898 -0.0246976
-0.26179501 -0.73369497 0.54736203
0.460576 0.52550799 0.043101799
0.72987199 0.643345 0.0044365101
0.81022102 0.68470401 -0.0094153602
-0.29548499 -0.74302799 0.54807597
-0.35143399 0.494636 0.0132709
0.70166099 0.63762802 0.0015522999
-0.94619602 0.458538 -0.00306913
-0.32668599 -0.75969702 0.55202699
-0.31639501 -0.76362199 0.55429298
-0.378941 0.51553601 -0.00118781
-0.102862 0.54239702 -6.39681e-06
-0.0037926501 0.54189497 0.0050519202
0.665236 0.6049 0.0092378901
0.77278399 0.64994502 -0.0054463702
0.92308199 0.69453597 -0.0174713
-0.90446198 0.52007598 -0.032671601
-0.25835299 -0.74582702 0.547755
-0.249074 -0.74366403 0.54732901
-0.160392 0.485917 0.0179062
-0.84564 0.41197801 0.0135374
-0.52497202 0.46859601 0.00376137
-0.18559299 0.495049 0.00833649
-0.063829102 0.48478499 0.0185486
-0.928945 0.46957999 -0.0195345
-0.317031 -0.77083498 0.552468
0.423112 0.478203 0.039856602
0.89872998 0.64221799 -0.010262
-0.72049499 0.487627 -0.0225254
-0.27522501 0.482759 0.00103822
-0.15368401 0.46617499 0.0139251
0.68126702 0.57696801 0.00413658
0.80408198 0.56882399 0.0131452
-0.937163 0.418181 -0.0053858398
-0.33541301 0.43611601 0.0147656
-0.187236 0.488083 -0.00165421
0.0102815 0.49143699 0.0063048499
0.34977099 0.47182199 0.0307167
0.37102401 0.459784 0.036969598
0.70539898 0.56276101 0.0069589699
-0.36223 0.450643 0.0025798299
-0.241513 0.43102399 0.016884301
0.775639 0.57439202 5.2232499e-05
-0.91844499 0.41305301 -0.0104789
-0.44897401 0.441264 -0.00134268
-0.049986701 0.43134499 0.0215338
0.64676702 0.51113403 0.017855
0.90469998 0.57140303 0.00276454
-0.53296602 0.42164099 -0.00061248202
-0.50586498 0.403548 0.0089023998
-0.329418 0.42085999 0.0089208502
-0.072748601 0.469717 -0.00132226
-0.41276899 0.39051199 0.0145089
-0.35837099 0.46500701 -0.016809801
0.352878 0.39742801 0.0467593
0.4657 0.444047 0.030675201
0.62926 0.475752 0.024439801
0.80413997 0.55492401 -0.0040571801
-0.87779999 0.40384099 -0.0169245
-0.84100199 0.377938 -0.00405626
-0.68511802 0.370253 0.0071400199
-0.63813698 0.45345601 -0.028811499
-0.041388799 0.43788701 0.00573029
0.88610899 0.51419199 0.014087
-0.50899899 0.39245099 0.000848706
-0.074999899 0.43133399 0.0026068499
0.544653 0.443147 0.025862699
-0.95304298 0.33519399 0.00271798
-0.90686798 0.385196 -0.0183305
-0.58826101 0.36054599 0.0075780302
-0.544972 0.448461 -0.031174401
-0.226739 0.37826699 0.016120199
0.3556 0.358843 0.0516425
0.83444899 0.48511001 0.0147638
0.87076902 0.50728899 0.00638169
0.47843 0.38503999 0.0405505
-0.92465401 0.323654 0.0013786
0.943636 0.51326001 -0.0024494501
-0.869865 0.345871 -0.0110468
-0.227942 0.35674599 0.0128648
0.36165801 0.33588001 0.0490711
0.40562701 0.34790701 0.045481101
0.506387 0.40635499 0.022765201
-0.0540848 0.36436099 0.0132556
0.045665201 0.392281 0.0040572402
0.55458897 0.38565299 0.025619701
0.81439197 0.448286 0.0075313398
-0.88788998 0.31355801 -0.0090361899
-0.52615499 0.38522801 -0.0269509
-0.14231899 0.37212801 -0.00226773
-0.0162705 0.30811501 0.032106601
0.322653 0.29312101 0.054136399
0.43040201 0.331882 0.040881898
0.87439799 0.45544299 0.0019795401
-0.90861797 0.284706 -0.00055853801
-0.61682397 0.36225399 -0.024633599
-0.58265001 0.313407 0.00015034901
-0.054292899 0.346856 0.0078893099
-0.815938 0.28448001 -0.00031873799
-0.26466 -0.82548201 0.551682
-0.142948 0.334012 0.0054578199
0.39349201 0.30702901 0.041774601
0.59774101 0.36884001 0.022018399
0.92570502 0.44030201 0.00203353
-0.56865197 0.26900801 0.0135584
0.88780099 0.44423899 -0.0063359002
-0.84892702 0.26221499 -4.4935601e-05
-0.65619302 0.25680101 0.0108494
-0.62005699 0.34809399 -0.031628001
-0.238199 0.326579 -0.0041641099
-0.111221 0.32231799 0.0032697101
0.0549918 0.30032799 0.0214421
0.825055 0.402567 0.0061453702
0.97497499 0.464708 -0.0173859
0.98131299 0.42701399 0.00124167
-0.90339601 0.24437501 0.0021557
0.37172899 0.27022201 0.045247201
0.56080902 0.321219 0.0288854
0.59205002 0.337964 0.022245299
-0.81766701 0.280292 -0.0160664
-0.19858301 0.26320499 0.0192481
-0.00311168 0.25962901 0.029884299
-0.82159197 0.244059 -0.0030243499
-0.22357599 0.300087 -0.0045722201
-0.0243201 0.29823199 0.0056202202
-0.88087201 0.27698401 -0.0259594
0.46017501 0.25148299 0.044672798
0.929501 0.372648 0.0054117902
-0.89808899 0.204206 0.0053447499
-0.489822 0.243745 0.0033450399
-0.29393601 0.27248901 -0.0029887001
0.55729097 0.288517 0.0258807
0.86003602 0.352254 0.00774871
1.04012 0.43170601 -0.0239227
-0.37845701 0.258919 -0.0046776598
-0.090461798 0.24069799 0.017502001
-0.026682699 0.26931301 0.0059609502
-0.0026751901 0.26669899 0.0083131501
0.31384599 0.205658 0.051970001
0.51509202 0.257586 0.034804601
-0.80182397 0.220888 -0.0080734501
-0.65579498 0.235249 -0.0088299504
-0.64265001 0.210871 0.00422379
-0.304268 -0.866561 0.55400699
-0.39928901 0.22788601 0.00594674
0.79470098 0.36770499 -0.0126596
0.885616 0.33951101 0.0049510798
-0.18442699 0.200464 0.0246139
-0.084568202 0.20530599 0.0264253
0.49998 0.22611099 0.040767401
0.561032 0.25833601 0.0271104
0.84283298 0.31682301 0.0098210098
1.02002 0.377882 -0.0134506
-0.54994899 0.17914701 0.0151561
-0.20882 0.24482501 -0.00350743
-0.115134 0.234339 0.0058572898
0.75989598 0.30189499 0.00920654
0.93803501 0.35416299 -0.0101338
0.81604701 0.33746201 -0.0115314
0.85709703 0.29816899 0.0097492896
-0.82869703 0.168864 -0.00012636901
-0.0057843998 0.211 0.0132653
-0.87821198 0.14251301 0.0073685599
-0.855124 0.156453 0.00077224802
0.088466197 0.206654 0.0150082
0.49617201 0.192421 0.039280999
0.67312801 0.278835 0.0022535401
0.69243401 0.24841601 0.0187221
0.81092602 0.281073 0.0071002399
-0.360724 0.17685799 0.0064482498
-0.178791 0.201896 0.0010691501
0.73548001 0.26003501 0.0096860202
0.86983103 0.286529 0.0016475799
0.92655802 0.32338899 -0.0148071
-0.389577 0.21218701 -0.0175675
-0.0785155 0.15801799 0.0235509
0.023212399 0.176394 0.0182363
0.85067803 0.28573099 -0.00865654
0.99312598 0.30009201 -0.0104744
-0.77860802 0.13472 -0.00218274
-0.56996 0.179562 -0.017008301
-0.54587001 0.17903399 -0.016371701
0.87934101 0.25314 0.0040303501
-0.87870198 0.110619 0.0019240601
-0.86255199 0.10599 0.0050680898
0.33530799 0.136693 0.037847199
0.475537 0.129035 0.0476471
-0.81057 0.129636 -0.0097463196
-0.095382601 0.142691 0.012389
0.106288 0.132983 0.0259177
0.447283 0.110887 0.051344998
0.79264402 0.208102 0.01462
0.87645698 0.248759 -0.0039849398
1.0888 0.34630701 -0.046396501
-0.911075 0.104407 -0.00499277
-0.772259 0.097980902 0.0039538601
-0.29394799 -0.90827698 0.55489999
-0.28310001 -0.90411001 0.55333698
0.41273901 0.096492201 0.052914001
0.86353099 0.25001499 -0.0105958
-0.80517101 0.084809102 0.0054078
-0.61135799 0.082163498 0.0144582
-0.247354 0.096820198 0.0215791
0.0412746 0.097612903 0.032960702
0.34914699 0.086708397 0.050900798
0.76443398 0.19008 0.0129079
-0.275323 0.16942701 -0.0232122
0.017782301 0.103166 0.0249581
0.72118998 0.18418001 0.0096325995
0.82085198 0.193968 0.0080802301
-0.780527 0.119247 -0.021442899
0.83562899 0.18308499 0.00929874
-0.785402 0.066988297 0.00205472
0.047591701 0.077843897 0.029625
0.99952501 0.20252401 -0.000140719
-0.81850702 0.037994601 0.0123978
-0.36994299 0.092972398 0.00040200099
-0.274607 0.128645 -0.0155182
-0.24936301 0.090722099 0.0058283601
-0.074569598 0.083236098 0.017461199
0.43786499 0.074776299 0.0416422
0.69911098 0.152798 0.0097596701
0.82463503 0.18047599 -0.000191605
0.87022501 0.169145 0.0075489799
0.95498103 0.18072499 0.0046072202
-0.43327501 0.101844 -0.0123373
0.52531397 0.108692 0.022082601
0.91246802 0.17597 0.00051095203
-0.456357 0.0987553 -0.015926501
-0.36138201 0.0639394 0.0071367598
-0.32859501 0.043524101 0.019533399
-0.0376123 0.052707098 0.025951
0.954292 0.193896 -0.0125446
-0.79050303 0.0357031 0.00122729
-0.287126 -0.93521899 0.55553699
-0.143922 0.053531099 0.016792599
-0.077174902 0.026114 0.034535099
0.306427 0.038588099 0.0426571
0.32602301 0.0252352 0.050746799
0.50978601 0.079003602 0.0284192
0.58128601 0.076701596 0.0321269
0.65618098 0.079991497 0.033371001
0.82922202 0.139933 0.00689785
0.86824799 0.147706 0.0037760399
1.06235 0.215841 -0.0262277
-0.61004698 0.052289099 -0.0055923699
0.915883 0.147349 0.00073427497
-0.50164503 0.0118565 0.0163134
-0.431611 0.062993102 -0.0095709302
0.76104599 0.110869 0.0105266
-0.80228698 -0.0071561602 0.0113323
0.13754299 0.036354002 0.023127001
0.58363199 0.063380897 0.0247484
0.65710598 0.0647659 0.027796701
-0.25148299 0.041017599 0.00086593197
-0.21899 0.0043572998 0.0222972
-0.13804799 0.037790202 0.0069530499
0.037482198 0.032515399 0.016510099
0.47905001 0.059698999 0.0179075
0.837798 0.115529 0.000695767
1.0332201 0.159098 -0.0171989
-0.78016698 -0.0074847802 0.00310053
0.071381301 -0.0112597 0.037858799
0.94755602 0.14411099 -0.017286001
-0.81115198 -0.023752499 0.00630855
-0.73710603 -0.0162216 0.0053424798
-0.31480399 -0.0104303 0.0178755
-0.21947899 -0.0116219 0.0218808
-0.0262262 -0.00124015 0.0242671
0.32293099 -0.0165298 0.0455749
0.37837401 -0.0114725 0.044741798
0.51409799 0.0149943 0.034574602
0.57052201 0.034511801 0.025604
0.86839998 0.095886603 0.0018962499
0.90309697 0.096458703 0.0029775701
-0.341003 0.0102906 0.000375128
-0.048672698 -0.0053427098 0.020362301
0.92371303 0.093786202 -0.000248456
0.98149502 0.10237 -0.0031763001
0.499874 0.00725016 0.0284827
0.832353 0.064954802 0.0077653499
-0.74048001 -0.047174301 0.0087157302
-0.43753299 -0.0056260899 -0.00370833
0.80952299 0.063133202 0.0025335001
-0.78443199 -0.063487098 0.0121283
-0.51918501 -0.00131182 -0.0143173
0.154898 -0.0287361 0.026965899
0.65781403 0.0066219098 0.02503
0.77986401 0.049565598 0.00381568
0.85749 0.0795784 -0.0102503
0.92042899 0.058181699 0.0045417398
1.00802 0.095664799 -0.0142462
-0.39496201 -0.054337401 0.0164405
-0.139973 -0.0434344 0.0201657
0.552136 -0.00069664 0.0198464
0.69797599 0.0160986 0.015769901
0.892349 0.087428197 -0.019115999
-0.72440499 -0.053358998 -0.00091994501
0.77070898 0.050140299 -0.0074333102
-0.49701199 -0.028817 -0.0120311
-0.221779 -0.051984198 0.011903
-0.111418 -0.056623898 0.0185831
0.069045603 -0.059412401 0.0270916
0.089913897 -0.0725687 0.035682101
0.336344 -0.084580399 0.051619001
0.60376501 -0.0405141 0.035289399
0.72475803 0.0064458898 0.0117832
-0.794626 -0.081750199 0.003388
-0.75937301 -0.083416902 0.0054237898
-0.58482099 -0.035445198 -0.0163975
-0.51889902 -0.038261998 -0.012559
0.52445197 -0.044201199 0.0297732
1.06049 0.0809099 -0.026016301
-0.72061402 -0.084321998 0.0041549001
-0.230048 -0.062589198 0.0082545197
0.43820301 -0.088320799 0.047627501
1.11526 0.099813499 -0.0408503
-0.78276598 -0.107683 0.0105395
0.066808604 -0.077880703 0.023171401
0.35385001 -0.092770301 0.042245802
0.61003602 -0.043284699 0.0216833
0.867715 0.0035178501 0.0022921399
-0.319601 -0.068270601 -0.00106837
-0.230856 -0.072620898 0.0042607798
-0.0288784 -0.068522602 0.0090834703
0.34066299 -0.0916517 0.036035798
-0.81132299 -0.118622 0.0066948198
-0.73517799 -0.135754 0.019726099
0.37917799 -0.118902 0.048859701
0.51451999 -0.089383401 0.035666998
0.58393699 -0.076479398 0.030104199
-0.78271103 -0.109534 -0.0028669699
-0.385066 -0.082866602 -0.0048598801
-0.28979599 -0.092382297 0.00404556
-0.0015466301 -0.10251 0.020521799
0.77026099 -0.050772399 0.0161539
-0.71262503 -0.119717 0.0013255799
-0.40854701 -0.089620903 -0.0071327998
-0.31264299 -0.094165899 -8.3527899e-05
-0.112608 -0.101441 0.0110927
-0.090713799 -0.111229 0.018061301
0.339001 -0.13852499 0.049584899
0.83020699 -0.0145185 -0.0094813602
0.94762403 -0.025269 -0.0047002998
0.98797101 -0.00384508 -0.0166301
1.04732 0.016783699 -0.0272191
1.10333 0.031784799 -0.0344682
1.1281101 0.0405077 -0.0389135
-0.73770303 -0.155909 0.0131612
-0.50071597 -0.112231 -0.0057194298
0.51452303 -0.13039801 0.040643901
0.544891 -0.114641 0.031919599
-0.715958 -0.15093 0.0059308899
-0.56820399 -0.12960701 -0.0022366201
-0.407258 -0.118079 -0.0042668199
-0.384702 -0.122475 -0.00020254499
0.680731 -0.101887 0.022986701
0.79176402 -0.0794416 0.0130856
1.05553 0.0027642001 -0.029668801
-0.469495 -0.133544 -0.00177908
-0.179671 -0.13331699 0.0087013002
-0.121271 -0.127012 0.0062836399
-0.091070898 -0.119063 0.00210921
0.097560003 -0.116349 0.0070692901
0.363116 -0.153303 0.039756801
0.38063201 -0.146604 0.0364675
0.52527398 -0.116001 0.0213481
0.73628801 -0.094942302 0.016598601
0.886217 -0.032112502 -0.019063501
0.94610298 -0.068289503 0.00555284
-0.76657301 -0.171933 0.0080596404
-0.20979001 -0.16013201 0.0198751
0.57828701 -0.126635 0.024821101
1.03485 -0.026117999 -0.0241153
-0.180989 -0.15481199 0.0117797
0.49129099 -0.13263001 0.0198458
0.74129802 -0.101404 0.0088524502
0.92438102 -0.087078497 0.0055272002
1.04898 -0.037222601 -0.022176201
-0.276133 -0.15245 0.00233012
-0.21065199 -0.15996 0.00920384
0.017325601 -0.16899499 0.022355299
0.90600902 -0.047850601 -0.0255231
1.13038 -0.0194907 -0.036548499
-0.72410703 -0.210536 0.019917199
-0.2987 -0.159862 0.00110737
0.79792303 -0.126763 0.0160331
1.0610501 -0.0460154 -0.0277662
0.85187697 -0.090147197 -0.0116919
0.96760201 -0.12711599 0.0156036
-0.69778401 -0.20560101 0.0074431798
0.99090999 -0.13654301 0.017229101
-0.39155799 -0.187604 0.00069756701
-0.29303899 -0.17049199 -0.0074643898
-0.26877901 -0.18668699 0.00364319
0.62794602 -0.188393 0.03387
0.89974201 -0.12934101 0.0039027999
0.95110297 -0.138844 0.0117472
-0.095132597 -0.20088901 0.0143677
0.95957899 -0.090104401 -0.025911899
-0.74212301 -0.23278099 0.0092682196
-0.715895 -0.231115 0.0087464796
-0.68728399 -0.219311 0.00185537
-0.47801799 -0.19692899 -0.0063370299
-0.45539999 -0.200507 -0.0026562701
-0.390396 -0.20908999 0.0048884698
-0.35411301 -0.20990799 0.0056604301
0.59498399 -0.188491 0.022052201
0.75634998 -0.147395 -0.000581862
-0.16073 -0.218068 0.0124722
0.35946801 -0.236561 0.0408445
0.65715402 -0.18322501 0.0149255
0.788059 -0.177674 0.0153945
0.93488199 -0.124825 -0.0155078
1.06919 -0.097142398 -0.029466599
0.82438302 -0.167173 0.0038270301
0.86013699 -0.14043 -0.0129034
1.04049 -0.117505 -0.0228623
1.0854 -0.105419 -0.0294494
1.0889699 -0.122295 -0.017943799
-0.78024203 -0.24155299 -0.00116792
-0.68426597 -0.24603701 0.0046441099
-0.47538 -0.234359 0.0037733901
0.31359801 -0.24969301 0.037988801
0.55713803 -0.20140401 0.0130692
0.72668999 -0.185587 0.0075252
1.01894 -0.118035 -0.0289544
1.13009 -0.111467 -0.030267701
-0.534316 -0.247952 0.0056403899
-0.45332199 -0.242128 0.0041782898
0.62300098 -0.232596 0.031028301
0.79356498 -0.21136101 0.021980699
-0.74082899 -0.26835299 0.0077467598
-0.71642703 -0.26201501 0.0043293601
0.27877301 -0.27478001 0.043169901
0.32457501 -0.25161299 0.0290953
0.58661598 -0.232858 0.0239201
0.89484298 -0.15806 -0.0175613
0.96060503 -0.18128499 0.00022853501
-0.27708301 -0.255126 0.0083002001
0.304389 -0.27036801 0.035848901
0.374495 -0.28176001 0.0456113
0.44975799 -0.24623001 0.023979099
0.70466799 -0.212927 0.0083679901
0.85374898 -0.18646801 -0.0050767101
0.97838598 -0.144612 -0.0304674
-0.67854798 -0.26990199 0.00106762
0.26145801 -0.29382199 0.045120999
0.415941 -0.26012099 0.0267404
-0.77540302 -0.27001199 -0.0070537901
0.58980799 -0.257945 0.024630001
1.11055 -0.166549 -0.023587501
1.17566 -0.123128 -0.0513862
-0.69723302 -0.28628999 0.00128787
-0.34252 -0.266666 -0.0017038099
0.18860701 -0.30070299 0.037131298
0.195758 -0.30313799 0.039306
0.475705 -0.25789499 0.0161204
0.95586401 -0.181684 -0.023801601
1.07661 -0.181917 -0.019988701
0.15734001 -0.347471 0.064611003
0.21692801 -0.310626 0.039695099
0.76892602 -0.249249 0.0125206
0.811845 -0.23510499 0.0036035799
-0.724859 -0.31166199 0.0081413696
0.23898099 -0.315559 0.038579501
0.26262599 -0.309973 0.035121199
0.414087 -0.28761801 0.0237776
1.07591 -0.215288 -0.0088209398
-0.68122399 -0.27771199 -0.019425301
-0.45516399 -0.29263201 -0.00228489
0.87873501 -0.25555199 0.0080846902
-0.70244497 -0.31343299 -0.000115662
0.580634 -0.28910899 0.0181784
0.75638503 -0.250256 -0.0047072102
-0.519104 -0.32091001 0.0047254101
0.189557 -0.351522 0.046712101
0.29076201 -0.307358 0.0177339
0.30574101 -0.32954201 0.034085698
0.79773301 -0.244032 -0.0138643
0.14192399 -0.37623399 0.0577165
0.21147101 -0.35425001 0.043398201
0.25286299 -0.337208 0.032143101
1.14337 -0.22390801 -0.025546299
-0.723158 -0.33197701 -0.0033470399
0.35624599 -0.324357 0.020859201
0.61883003 -0.29439399 0.0056913202
0.68621898 -0.30145901 0.0123096
-0.74564099 -0.359249 0.0111533
0.200414 -0.37833101 0.049940102
0.313768 -0.34428599 0.0286192
0.47731 -0.71148002 0.300623
1.149 -0.24011999 -0.026145
0.141067 -0.39309999 0.053881101
0.24108399 -0.36701 0.037133399
1.09277 -0.191586 -0.069192797
0.073511504 -0.377343 0.034449499
0.65715897 -0.326666 0.0125725
0.80641001 -0.29706201 -0.0053965999
0.93748099 -0.30664399 0.0054629501
-0.67781901 -0.37018701 0.0046039498
0.492753 -0.362546 0.0294623
0.668998 -0.33924001 0.016278701
0.67786801 -0.33760601 0.0153901
-0.748254 -0.38055 0.00478725
-0.72135699 -0.36768901 -0.00350351
0.14066599 -0.40810201 0.048704099
0.172471 -0.394734 0.0397131
0.61914301 -0.360818 0.0256423
0.90136701 -0.30404299 -0.0099231396
0.31246299 -0.372208 0.0204289
0.56956702 -0.359667 0.017250299
1.0233001 -0.29576901 -0.019564399
0.13970301 -0.42506 0.044941399
0.213026 -0.415683 0.039387502
0.246215 -0.403395 0.0307048
0.50236201 -0.381024 0.0200608
1.00049 -0.28572601 -0.040986799
-0.67803401 -0.38465801 -0.0114286
0.179259 -0.41447401 0.032180399
0.313557 -0.385169 0.0127906
0.42092699 -0.39753801 0.0252805
0.83418399 -0.340139 -0.0097995298
0.919774 -0.336577 -0.0098460903
1.01806 -0.32050401 -0.0204121
-0.69802999 -0.42061499 0.0103761
-0.645275 -0.39024499 -0.0125096
0.45463699 -0.39607301 0.018435599
0.13232 -0.43988401 0.039164498
-0.738051 -0.417685 -0.00413056
0.177846 -0.434275 0.030484799
0.74828202 -0.374172 -0.00360817
0.88367802 -0.387835 0.0092036398
1.00639 -0.34277201 -0.022705
-0.66517597 -0.42553601 -0.0019678699
0.239563 -0.42541599 0.018948101
0.32998401 -0.42207199 0.0186275
0.71975499 -0.386994 -0.00040711701
0.94755298 -0.36759701 -0.0110736
1.0422699 -0.33798701 -0.031832501
-0.71070403 -0.418726 -0.0136062
-0.64337498 -0.42105299 -0.0105395
-0.66974401 -0.44225001 2.03215e-05
0.221873 -0.445456 0.022758201
0.328706 -0.43609601 0.0175559
0.485396 -0.43847701 0.022557801
0.89413399 -0.393603 -0.0043898402
-0.31681901 -0.434771 -0.00446798
0.116742 -0.46645001 0.030987401
0.59773499 -0.43494099 0.015877301
0.67888701 -0.428155 0.0128632
-0.24402601 -0.41276699 -0.0262387
0.61029798 -0.443894 0.016919199
0.78614002 -0.408043 -0.0078531699
0.98973101 -0.391949 -0.0171542
-0.75320899 -0.46311799 -0.00191869
-0.72964603 -0.445373 -0.0152207
-0.63530397 -0.43137601 -0.0244697
0.107724 -0.48425901 0.033720601
0.551364 -0.457901 0.021529401
1.09509 -0.40233901 -0.0126235
-0.66133398 -0.45747501 -0.0105427
-0.38778201 -0.45118701 -0.0098568099
-0.108396 -0.47107199 0.012947
0.085944697 -0.490955 0.0327859
0.22031701 -0.472294 0.0204194
-0.40888399 -0.48247701 0.0095591703
0.168218 -0.48588699 0.025758101
0.83021498 -0.42185301 -0.0147785
0.98902297 -0.41988301 -0.0134951
1.02714 -0.40671 -0.023889299
1.08948 -0.403988 -0.025108
-0.48069 -0.451689 -0.0241882
0.069036901 -0.52026898 0.045049001
1.0592099 -0.42310899 -0.016571
-0.68639398 -0.47830501 -0.0108072
-0.63863999 -0.481996 -0.00703777
-0.60244799 -0.487001 -0.00125376
0.121462 -0.50592798 0.028444599
0.93661201 -0.44365901 -0.0080957999
-0.71616501 -0.50190902 0.0025963399
-0.544604 -0.491119 -0.00342305
0.55183798 -0.485704 0.0127567
1.08223 -0.43776199 -0.017268
0.96302402 -0.454133 -0.0121795
1.01959 -0.43915799 -0.023747001
1.11359 -0.43845701 -0.0225532
-0.378261 -0.50112897 -0.0030720299
-0.101819 -0.50490803 0.0055958699
0.70037597 -0.493918 0.0099768201
0.83853 -0.451989 -0.022971001
0.73509598 -0.485434 -0.0031117401
0.853773 -0.477972 -0.00744806
0.87396997 -0.48255301 -0.0032607601
1.00879 -0.47047901 -0.0113445
1.03957 -0.46484599 -0.0152422
-0.069215901 -0.53459799 0.017973101
-0.70897001 -0.52120101 -0.0097737899
-0.543643 -0.51058 -0.0163121
-0.270621 -0.51542598 -0.0071912999
0.23522601 -0.51660502 0.0022103
0.66347599 -0.51878202 0.0114967
0.89818299 -0.48608401 -0.0136704
-0.55508399 -0.52188498 -0.0127692
0.21867 -0.5266 0.00448883
0.64242101 -0.53236699 0.0163488
1.0214 -0.50653899 -0.0068196598
1.06471 -0.482039 -0.0280909
-0.30869201 -0.524248 -0.0200078
0.19954 -0.54983401 0.0120881
0.95306498 -0.506872 -0.0144182
0.99795997 -0.51918799 -0.00311563
-0.559071 -0.53172499 -0.022664901
-0.27224901 -0.53735203 -0.0130799
0.58533198 -0.55394602 0.0149386
0.69219398 -0.55439001 0.0166952
0.75992602 -0.51963401 -0.0130767
-0.60349399 -0.54165602 -0.020455301
0.79425102 -0.52303803 -0.0164729
0.83234799 -0.498303 -0.037888099
1.0568399 -0.51549399 -0.019717
-0.37176701 -0.56862497 6.5271102e-05
0.76346999 -0.53671098 -0.0114723
-0.75093597 -0.56979698 -0.0101113
-0.086042501 -0.59121901 0.019565299
0.720415 -0.56546301 0.0071571502
-0.271781 -0.57176602 -0.0073022898
-0.044066399 -0.58700502 0.0094017396
0.91768402 -0.54768598 -0.0125955
0.95694703 -0.541686 -0.018826401
1.05588 -0.54213297 -0.0165096
-0.120947 -0.59046203 0.00522304
-0.55644703 -0.59054202 -0.0063246498
0.90833801 -0.56100899 -0.0152128
0.96475101 -0.55427998 -0.021352099
-0.333608 -0.59071797 -0.0099717397
-0.312206 -0.594926 -0.0054474501
0.17678601 -0.61532098 0.0198083
0.94123 -0.56700498 -0.0170289
0.99106598 -0.573906 -0.0095783696
-0.57617199 -0.589378 -0.020589299
0.81160802 -0.57829899 -0.0218096
0.88468099 -0.57837403 -0.0214097
-0.64369899 -0.59627903 -0.027268
0.72084302 -0.63166302 0.020708401
0.94600201 -0.61602902 0.0096523203
0.73749697 -0.63562202 0.017904
0.98723602 -0.60153902 -0.012675
1.04254 -0.59652197 -0.016816299
-0.62500399 -0.64515603 0.00768199
-0.088292599 -0.63116997 -0.00179165
0.918724 -0.60286701 -0.0191737
0.13382401 -0.64861602 0.0112105
0.71848702 -0.651205 0.0187105
0.82122397 -0.62379497 -0.00608024
-0.630126 -0.63495803 -0.016078001
-0.39200899 -0.64377499 -0.0050166198
-0.38036099 -0.64120299 -0.0138239
1.0077 -0.63608801 -0.0082451003
-0.320342 -0.65616399 -0.0063862498
-0.307803 -0.649562 -0.0122921
-0.253344 -0.65123498 -0.0098717604
0.84388798 -0.664828 0.0121498
0.80111003 -0.65283 -0.00752992
-0.63942897 -0.63087702 -0.0472406
0.819561 -0.656147 -0.0114737
-0.57235301 -0.64876199 -0.034538198
-0.54597503 -0.66693503 -0.0168861
-0.636648 -0.66027898 -0.031060601
0.193966 -0.68886501 0.00372442
0.92894101 -0.66371298 -0.0186383
1.0368 -0.67562097 -0.00621574
-0.52957797 -0.687325 -0.0095546404
-0.381574 -0.68260998 -0.0135692
0.835127 -0.67419499 -0.015681701
0.85901302 -0.68170202 -0.0081773503
-0.39290401 -0.693259 -0.0099224504
0.92188299 -0.667678 -0.0300039
-0.38102201 -0.69755101 -0.0117843
-0.34770301 -0.69895101 -0.0101589
-0.30265501 -0.69377297 -0.0157029
0.78824103 -0.70782399 0.0037531899
-0.70527703 -0.688559 -0.030169699
-0.69449198 -0.68397999 -0.034688499
-0.58595699 -0.69597501 -0.021181401
0.14675801 -0.72258002 0.0096033895
-0.522021 -0.71453899 -0.0083937002
-0.37319699 -0.71279401 -0.0088846404
-0.25403899 -0.71556401 -0.0057644998
0.33617499 -0.71901703 -0.0012236
0.869196 -0.70331299 -0.016288601
1.0092 -0.707793 -0.0108859
0.899755 -0.71060002 -0.016254799
0.95173699 -0.72077399 -0.0053311302
0.97581202 -0.71447498 -0.0118765
-0.42770499 -0.72032899 -0.0156088
-0.561234 -0.71983302 -0.0246509
-0.52273399 -0.73052698 -0.0117614
-0.287334 -0.73743802 -0.00382701
0.70990098 -0.74497402 0.0047975099
0.847233 -0.726188 -0.0151455
-0.36563 -0.74309802 -0.00449439
-0.080813497 -0.74638897 -0.00151714
-0.597525 -0.73369902 -0.022719299
-0.53378499 -0.73288798 -0.023502801
-0.51496398 -0.74554998 -0.0093413796
-0.348856 -0.74105197 -0.014382
0.88660699 -0.73856902 -0.017762899
0.91301602 -0.73676801 -0.0199042
-0.55336601 -0.739483 -0.023812599
-0.43072599 -0.75501198 -0.00601807
0.69950497 -0.77211499 0.0114873
-0.53572398 -0.74161899 -0.028381299
0.98293 -0.78044599 0.0131952
-0.349776 -0.75802499 -0.017473601
-0.32925501 -0.76062399 -0.0143819
-0.25832799 -0.74901801 -0.027480699
0.84204698 -0.76672602 -0.010428
-0.42091799 -0.78286397 0.0038433799
