# .PCD v0.7 - Point Cloud Data file format
VERSION 0.7
FIELDS x y z
SIZE 4 4 4
TYPE F F F
COUNT 1 1 1
WIDTH 1491
HEIGHT 1
VIEWPOINT 0 0 0 1 0 0 0
POINTS 1491
DATA ascii
-0.081675701 -0.022249799 -0.037467699
0.280568 1.80761 0.075703502
-0.10605 -0.438627 -0.0449985
-0.031897102 0.63899899 -0.0148619
-0.24440201 0.51233703 -0.040016599
0.26757401 0.32858899 -0.040116299
0.441856 1.4532 0.050682198
0.034666602 -0.30691901 -0.044640999
0.10027 2.2684901 0.088671297
0.069448002 0.14196201 -0.042257302
0.069265701 -0.29115501 -0.039569899
0.041832 1.71166 0.037903599
0.145291 0.65281302 -0.029937699
0.20931099 1.69024 0.0224113
0.52015102 0.93261701 0.0049618399
0.080478601 -0.102778 -0.040036701
0.21723001 1.26851 0.0392121
0.271368 0.0287132 -0.020280801
0.31391501 0.75166303 -0.00416116
0.054294098 -0.0284972 -0.053562399
0.114293 0.60211498 -0.021617301
0.940911 -0.661852 -0.0642334
0.44436601 1.94499 0.027086901
0.222912 -0.15562101 -0.034548201
0.098254599 0.39765799 -0.030496201
-0.0478683 0.47325999 -0.034999099
0.58924901 1.1367199 0.025021
0.46640801 0.45132801 -0.0134434
0.37397099 1.2973599 0.0112245
-0.127033 1.97666 0.093005501
0.17182299 0.83911502 -0.013959
-0.141726 -0.44944701 -0.053036802
0.73601598 1.13139 0.011312
0.37809899 0.94010502 0.0216766
0.48052099 1.89775 0.0463874
0.157931 1.11488 -0.0036830499
0.29960901 0.317476 -0.0266295
-0.21472301 0.99817502 -0.0092050396
0.24739499 0.135663 -0.0498446
0.204997 -0.310231 -0.049618699
-0.131698 -0.182878 -0.062849902
0.247668 0.0742165 -0.034879401
0.023246599 2.1507299 0.030943001
0.65209198 1.9153 0.0210813
0.66811699 0.63976002 -0.0126756
0.62897098 1.4599 0.0407646
0.76829398 -0.78305602 -0.0822751
0.21126001 -0.52030301 -0.045463301
0.225871 -0.32546499 -0.058855198
-0.17993601 1.5204099 0.0266103
0.59691 0.16190501 -0.0183152
0.461063 0.200441 -0.0153751
0.82867497 -0.44361499 -0.058084201
0.29672599 0.54097497 -0.0241122
0.45899099 1.92862 0.0408093
0.25218701 -0.12357 -0.0404654
0.20504799 -0.33524501 -0.047580201
-0.265452 -0.171275 -0.049103301
0.40748301 0.035052501 -0.038483799
0.13754 0.63888502 -0.039608601
0.43850899 0.052143902 -0.0367104
-0.0524868 0.89511597 4.07306e-05
0.47101399 1.85879 0.041866999
-0.25451899 -0.0196518 -0.0284226
0.38541999 -0.118056 -0.0580061
0.078908697 2.02826 0.069155298
0.35965201 -0.395417 -0.0410427
0.60380399 1.49772 0.033383701
0.33518499 0.814578 -0.0115657
0.18849701 1.34383 0.0412472
-0.28778699 -0.39068201 -0.065706402
0.062912099 -0.30930901 -0.045419302
0.35494301 0.80465502 -0.0096732704
0.46631199 -0.70365697 -0.091066599
0.794828 1.5028 0.0092929704
0.25415 1.98289 0.058795601
0.340029 -0.531317 -0.058380701
0.81841201 -0.62778801 -0.066632003
0.65319502 -0.54878598 -0.090508603
-0.016326999 1.50467 0.0069410601
0.052536398 -0.52101099 -0.043667998
-0.104342 -0.247417 -0.0559742
0.030920099 -0.635028 -0.068259299
0.411006 -0.181087 -0.0493332
0.52257299 0.616763 0.0140893
0.79005098 -0.65048701 -0.0668974
0.87195897 0.83298999 -0.0065139201
0.41583401 1.29369 0.023285801
0.35403201 -0.56855202 -0.057873402
0.56230998 0.971811 0.0045839199
0.72506601 0.788544 0.022923401
0.36759299 -0.31417501 -0.068504401
1.00121 0.52512598 -0.0112204
1.05911 0.82291198 -0.0078710802
0.37615499 -0.39131099 -0.044112001
0.566163 1.27824 0.0083248904
0.27007499 2.1819401 0.085831396
0.88042903 -0.27896601 -0.055858102
0.84991801 0.50064498 0.0129734
0.61971498 1.41803 0.038045999
-0.25015801 0.27894899 -0.0357958
0.81023002 -0.65300202 -0.066763498
0.0072718998 1.87422 0.0223436
0.644319 -0.60797101 -0.068035901
0.85741198 -0.25852299 -0.064188898
0.48488501 -0.609088 -0.049247801
-0.110655 0.294626 -0.065456398
0.50080901 0.50005698 -0.0226677
-0.017687 0.98672098 -0.0165295
0.58336401 0.061820701 -0.060381599
0.17751899 -0.53409302 -0.0513543
0.42390701 1.7578501 -0.0040100799
0.54045397 -0.21334299 -0.0479948
0.139725 0.83608598 -0.00670292
0.96697801 -0.52179402 -0.050614901
0.91869801 -0.088266201 -0.047624499
0.53480601 -0.40605199 -0.057637699
0.346968 0.75255901 -0.0066318698
0.57476801 -0.0227035 -0.033738598
0.59928101 -0.00370058 -0.048053
0.0231879 1.4935499 0.021063
-0.109312 -0.190448 -0.068628497
-0.094579101 0.45528999 -0.038206
0.335161 -0.70707297 -0.069737703
0.68296897 0.60723102 -0.00263138
0.069730997 2.0193801 0.057361599
-0.22877701 0.82370198 -0.0294274
0.84510601 -0.498932 -0.048414599
0.70475602 -0.21151 -0.051308401
0.41033 1.57778 0.028093399
0.51501602 -0.38496801 -0.052318301
0.66195703 -0.62754899 -0.061218798
1.03929 -0.149914 -0.0340624
-0.070036702 0.74287802 -0.0293386
-0.000884337 1.52791 0.0139785
0.80255997 0.41018799 -0.040428299
0.333074 -0.57521099 -0.048537198
0.668562 -0.43511701 -0.0574941
1.17449 0.526245 -0.0153271
0.73548901 -0.172501 -0.076192804
0.57586801 -0.14637201 -0.071995601
0.20186 1.1133 0.0121684
-0.0204679 1.10274 0.0289531
0.89430201 0.77863801 0.0089930603
0.84601402 0.66605097 -0.025122499
0.38913101 -0.33133999 -0.065114602
0.51410502 -0.57749403 -0.0588714
1.02293 -0.265728 -0.067058504
0.453087 0.44303101 -0.0098708197
0.63790298 0.215398 -0.0281961
1.09532 0.117198 -0.041017398
0.550026 -0.16872901 -0.0545865
0.97769701 0.38515699 -0.034107301
0.69244897 -0.424032 -0.068843298
0.34580499 0.97917998 0.0156236
0.84548002 0.61482102 -0.0222202
0.63984901 -0.75615197 -0.085250497
-0.028703401 0.92360699 -0.0139573
0.55074698 0.89552402 0.014546
0.90214998 -0.0244176 -0.056767199
0.17991801 1.07291 0.0073378002
0.69774002 -0.41328901 -0.059558298
0.0153298 1.47287 0.0133354
0.489279 0.419992 -0.0071982201
0.70744097 -0.206653 -0.065749198
0.768516 0.0209019 -0.065313399
0.72759598 -0.25411999 -0.051297098
0.56218702 1.22443 0.0092117898
0.72514898 -0.071165502 -0.0325328
1.1287 0.308725 -0.036123302
-0.17487399 1.97176 0.0198003
0.76031601 1.0600899 0.029878501
0.248266 1.59728 0.043475199
0.173124 1.1344 0.0081650401
0.81839901 0.32535201 -0.0097092902
0.77099299 0.199467 -0.040185399
0.95901603 0.125508 -0.0295946
0.70503497 0.645652 -0.00306338
0.948452 0.095249198 -0.0272635
0.89129698 -0.267349 -0.0510948
-0.18904001 1.28404 0.018360199
0.66597497 0.37920099 -0.0138814
0.92682499 0.12622499 -0.038035601
0.90978599 1.0474 0.0142112
0.79220498 0.110717 -0.0204864
0.199219 -0.54636699 -0.049661301
0.87011701 -1.20687 -0.058527999
0.77714401 0.226859 -0.062892802
0.83521098 0.360897 -0.0132524
0.194409 1.33555 0.022820801
0.67360002 -0.394604 -0.067287304
0.77036101 -0.0348459 -0.0407358
1.0608701 -1.1738501 -0.062066
-0.66391701 2.7202001 0.040085599
0.82120699 -1.22132 -0.065171197
0.831303 -1.21246 -0.064279802
-0.81816101 2.5330501 -0.0188211
-0.108332 -1.00524 -0.029049501
-0.394317 -0.90901703 -0.059882201
-0.67702001 2.37831 0.020693401
-0.68638402 2.8240299 0.0594249
-0.60912198 2.4776399 0.0217374
-0.680282 2.77492 0.0611341
-0.55562901 -0.75883102 -0.0505303
-0.87340301 2.6997099 -0.054377601
-0.71736401 -1.1490999 -0.0594045
-1.85505 1.81889 0.212401
-0.62593198 0.439946 -0.117398
-0.59165901 -0.72535199 -0.077087097
-0.69916898 -0.78905302 -0.080100998
-0.59724098 -1.11421 -0.043621901
-0.76522303 1.93819 -0.034327399
-0.66456997 1.8050801 -0.053177599
-1.60129 0.170242 0.045267198
0.87977099 -1.26156 -0.036710002
-0.599563 1.62015 -0.0251828
-0.584566 1.06107 -0.054158699
-0.65752703 2.87323 0.0524459
-0.70868999 1.10927 -0.083513401
-0.61680502 0.57456797 -0.119709
-0.708691 1.80778 -0.0188553
-0.70652503 1.4274 -0.071412198
-0.812132 2.19751 -0.0246475
-0.81936097 2.0486901 -0.0275019
-0.58027297 0.12837 -0.093907103
-0.67404801 -0.482357 -0.069968604
-0.69171202 -0.47976899 -0.080037802
-1.23478 1.33222 0.101685
-1.34315 1.42581 0.043572102
1.11086 -1.04178 -0.0562828
-0.59679902 -0.467127 -0.074882098
-0.679088 -0.63965398 -0.076021597
-0.67603499 -0.52407801 -0.097496003
-0.67341101 -0.64086998 -0.066404499
-0.662404 -0.17595901 -0.102795
-0.73178601 1.28891 -0.0632497
-1.45114 0.44556001 0.0311765
-0.58798099 1.16827 -0.0692406
0.140266 -1.02728 -0.053405199
-0.61558199 0.76765299 -0.111053
-0.72809899 -0.040791798 -0.113763
0.72186601 -1.2918 -0.063977703
-1.00178 -1.0466501 -0.00610886
-1.32645 0.53622299 0.0287787
-0.65071797 1.5837801 -0.043937098
-0.42341501 -1.20838 -0.026061401
-1.5560499 0.130822 0.064074501
-0.68393898 1.49534 -0.0358104
-0.59156299 -0.46915501 -0.065131798
-1.37778 -0.0179141 0.0139889
-0.706855 0.87616301 -0.100593
-1.47404 0.37090799 0.0198908
-0.85069799 2.72949 0.028963801
-1.41167 0.38638499 0.018497
-0.70520103 1.30169 -0.106472
-0.72475898 1.69972 -0.032068599
-0.72702801 1.72791 -0.028133599
-0.56955498 -1.11017 -0.0481424
-0.66800898 -0.73628902 -0.087420397
-0.78764403 1.99436 -0.069023103
-1.55857 0.053575002 0.00328929
-1.45518 -0.100111 0.026235299
-0.54822999 1.80137 0.054252699
-0.68008697 0.035511199 -0.124759
-0.26404399 -0.95473897 -0.0458446
-0.77465802 1.32613 -0.060268302
-0.80895501 2.6261899 0.052638698
1.16365 -0.84576899 -0.0365493
-0.616027 0.105641 -0.106796
-0.68935603 1.64104 -0.042159099
-0.57160801 1.24784 -0.043105599
-0.61846501 -0.65880901 -0.075559497
-0.60840398 0.0224085 -0.062679201
-1.2380199 1.19045 0.0723003
-0.63446897 -0.30735201 -0.088492297
-1.2534 0.33621499 0.0127993
-0.62095302 1.13083 -0.104834
-1.2926 0.82911098 0.031650901
-0.78857899 -0.60260701 -0.093888201
-0.62888497 -1.0959899 -0.057600599
-0.66906297 -0.62376899 -0.064069301
-0.65010202 0.88566703 -0.069915898
-0.63345098 -0.279145 -0.091910698
-0.60586703 1.07833 -0.083322696
-1.30345 0.84894502 -0.0057281698
-0.76689398 1.21615 -0.0781423
-1.56824 0.15424199 0.046598401
-1.42094 0.096921697 0.0192321
-0.82404703 1.20856 -0.118698
-0.633802 0.63901001 -0.106544
-1.60842 -0.0526448 0.021151001
-1.2035 0.56567299 0.0093347598
-0.55104202 -0.77431899 -0.124008
-0.66383702 0.14766601 -0.111172
-1.39754 1.577 0.0502671
-0.58341402 2.1962199 0.0104164
-1.0303299 -0.241349 -0.032987699
-1.53887 0.613778 0.0193676
-0.82213402 1.49713 -0.128718
-0.605667 0.80897301 -0.073690802
-1.51583 0.63391799 0.052409001
1.1904 -0.81621701 -0.0571707
0.83405 -1.28029 -0.062238399
-1.25982 1.20669 0.068261102
-1.29164 1.36713 0.105733
-0.63433802 0.052911501 -0.0545117
-0.63345897 -0.0645184 -0.111984
1.11488 -1.0396399 -0.045768101
-0.615538 1.18634 -0.00164762
-0.62546301 -0.40365401 -0.064467803
-0.76954103 1.04388 -0.103055
-0.746144 0.025680199 -0.10272
-0.84469998 1.46347 -0.065895103
-0.74367398 1.02053 -0.054982498
-1.47087 0.83220398 0.0099517396
-0.778395 1.67158 -0.050124601
-0.60145098 2.5885 0.075685203
-1.50588 0.27001601 0.032505602
-0.630099 1.16702 -0.078902401
-1.89683 2.0248699 0.218738
-0.73556799 -0.72043997 -0.081235498
-0.80176401 -0.82377601 -0.076685898
-0.746355 -0.360351 -0.086191699
-0.88173997 2.33428 -0.0595125
-1.51486 0.60703999 0.0284798
-0.76618397 1.50363 -0.0748026
-0.70474499 0.35501701 -0.118295
-1.31286 0.825755 0.0419899
-1.39668 0.38857299 0.0123087
-0.666044 1.42194 -0.0518055
1.43503 -0.99371302 0.0050554802
-1.37938 0.94385201 0.0130959
-1.02469 -1.23014 -0.0047468301
-0.145889 -1.05917 -0.055522099
-0.82380199 1.02276 -0.0960434
-0.67393202 0.27241701 -0.121923
1.39442 -0.83962399 -0.031270899
-1.22484 0.74487799 0.0268548
-0.75134099 1.728 -0.046843499
-1.22105 -0.39882299 -0.0182632
1.14864 -0.99399298 -0.032143101
1.42672 -1.01797 0.0191168
-0.76816201 0.84948498 -0.128997
-1.29627 -0.44829199 0.014683
1.32047 -0.84667099 -0.041180398
-0.78151399 1.68459 -0.090916999
-0.71448398 -0.153073 -0.086268902
-2.13726 2.2843101 0.174638
-1.35901 2.4814799 0.123485
-1.32412 2.47387 0.120671
-1.3206 2.5132899 0.11282
-2.09534 2.0387599 0.2041
-1.98673 1.85417 0.219541
-1.30045 2.0141101 0.178872
-1.26998 2.3124299 0.112237
-1.35256 2.14134 0.143475
-0.52867299 2.3368299 0.084262997
-1.0958 2.7809801 -0.00589563
-1.91803 1.80018 0.190304
-1.33919 2.2702601 0.085594296
-1.30283 1.97145 0.118737
-1.65861 2.0708499 0.096667297
-1.94056 1.6564 0.183751
-1.86563 1.57793 0.200342
-1.55383 1.8615299 0.13373099
-1.5633 2.0530901 0.092446603
-1.31174 2.0043001 0.101477
-2.0417399 1.60492 0.18876401
-1.91667 1.54424 0.18825699
-1.24597 1.73097 0.13596401
-1.99895 1.52036 0.18069801
-1.96013 1.47965 0.189279
-1.30012 2.0427301 0.060674701
-1.1918 1.78492 0.116313
-1.8113 1.50832 0.178637
-0.89799201 2.2982399 -0.0026835999
-0.84638602 2.3668599 -0.0186121
-1.4594899 1.80835 0.102724
-1.52116 1.91008 0.076710999
-1.99514 1.5174201 0.16478001
-1.20252 1.60797 0.13968401
-1.28327 1.87717 0.075063899
-1.34062 1.91659 0.063070104
-0.97535002 2.3489799 -0.049238902
-1.42741 1.71442 0.095822498
-1.48206 1.79928 0.072852403
-1.55405 1.84519 0.044101901
-1.30667 1.52666 0.117737
-1.24824 1.69486 0.078207798
-0.98751098 2.1129401 -0.0252838
-1.45965 1.48043 0.119453
-1.62883 1.59138 0.0827595
-1.26529 1.54444 0.0861056
-1.17426 1.5031101 0.092145801
-1.2702301 1.7041399 0.039640501
-0.99428898 2.2127199 -0.085529298
-1.70007 1.59726 0.063554503
-1.47219 1.40044 0.107763
-0.88095599 1.92503 -0.023956301
-1.9265 1.18058 0.159729
-1.5082901 1.42126 0.099175498
-1.93521 1.21218 0.148183
-0.88107598 2.0100901 -0.052126199
-1.80419 1.03663 0.18232401
-0.86346698 1.6387 0.017964499
-0.90431899 1.9109499 -0.055054799
-1.50899 1.42992 0.065148801
-0.891298 1.8054399 -0.031993698
-0.93929499 1.87985 -0.054528002
-1.64411 1.33397 0.071990199
-1.62704 1.32991 0.072736397
-1.64231 1.37932 0.052698899
-1.54117 1.23552 0.083573602
-1.23185 1.3879499 0.039114099
-0.87436801 1.5672801 -0.0092964303
-1.83764 0.93322998 0.153723
-1.38981 1.15843 0.093332097
-1.4414999 1.22973 0.070909902
-1.37683 1.15773 0.090057902
-0.88917702 1.54432 -0.0216999
-1.39319 1.32344 0.034967098
-1.56771 1.15749 0.072594702
-1.53828 1.10624 0.079273
-1.3654 1.11444 0.0768084
-1.00418 1.75615 -0.098365098
-0.94922298 1.6366301 -0.065859199
-1.35352 1.14308 0.061845802
-1.28901 1.02957 0.086003602
-1.68224 1.18154 0.032663502
-1.30036 1.03982 0.072656497
-1.5848 1.2132 0.0206932
-1.2932 0.98728102 0.0808364
-1.40914 1.09042 0.040462099
-0.57819599 1.4009 -0.047365699
-1.43414 1.10502 0.032944899
-1.2640899 1.01446 0.0585078
-1.35305 1.00044 0.0607966
-1.33146 0.98384303 0.064679697
-1.57719 0.89383799 0.075548403
-1.27413 1.04562 0.032022201
-1.49622 0.96929902 0.050632499
-1.46615 0.93384498 0.0570582
-1.28561 0.88491303 0.064939402
-0.893435 1.41778 -0.090964697
-1.2484601 0.84772497 0.0728212
-1.2092201 0.84158599 0.064013399
-1.24259 0.86995298 0.047335301
-1.23836 0.881643 0.0369992
-1.4270999 0.88428199 0.025231
-1.63946 0.91257 0.0120185
-1.62796 0.883986 0.013504
-1.3200999 0.74278003 0.0297301
-1.52017 0.79230899 -0.0054062898
-1.36446 0.69013202 0.024441401
-1.41785 0.70566899 0.015720099
-1.29784 0.59288001 0.045428701
-1.40819 0.60114098 0.031349801
-1.7627701 0.487037 0.049610998
-1.58724 0.56781298 0.0118101
-1.70052 0.52188599 0.0237583
-1.57012 0.47995001 0.0269616
-1.3974299 0.51634598 0.0128175
-1.4240201 0.51927799 0.0074057602
-0.97529501 0.670452 -0.0415328
-1.65456 0.343357 0.059663098
-1.33822 0.50242698 0.00305863
-1.28931 0.48940101 0.0076053902
-1.35076 0.49655801 0.00130587
-0.86016202 0.78476 -0.095950201
-1.1898299 0.46408999 0.0098215695
-1.2292 0.40540501 0.026327301
-1.2582 0.45851699 -0.0031500401
-1.16105 0.47121701 -0.00755502
-0.76278299 0.66634202 -0.101432
-0.77405399 0.69207001 -0.115345
-0.71888 0.57790202 -0.0730097
-1.16997 0.341212 0.0026763401
-1.20895 0.35957599 -0.0081380103
-0.76793998 0.72552902 -0.139644
-1.46338 0.35260299 -0.0120766
-1.36431 0.240352 0.0308655
-1.08529 0.36207101 -0.0151672
-0.86214602 0.425349 -0.036566298
-0.78552002 0.72627002 -0.147971
-1.4148099 0.22689299 0.0280641
-1.41475 0.278519 0.0087396102
-1.34448 0.233254 0.0267935
-0.93069297 0.550228 -0.088004701
-0.89509499 0.53246301 -0.081338502
-0.75807703 0.55332601 -0.099429302
-0.700957 0.57379401 -0.106458
-1.2712899 0.247218 0.0066205501
-0.78954899 0.59525502 -0.119571
-1.30928 0.264249 -0.0027970099
-0.72073603 0.61522901 -0.13841701
-1.26828 0.115597 0.039474901
-0.70586503 0.44457099 -0.081291698
-1.3536 0.21393199 -0.0036290099
-1.2819901 0.14860401 0.018908
-1.49312 0.0920178 0.031443398
-0.77265102 0.51197499 -0.12441
-0.73695397 0.47326499 -0.109075
-0.728917 0.50596303 -0.12564699
-0.78918701 0.45179501 -0.129529
-1.63265 -0.0070196302 0.040407099
-1.26125 0.046768598 0.015930301
-1.20216 0.063477904 -0.00158988
-1.22418 -0.0152828 0.0118137
-1.2729 0.035314601 -0.0137448
-1.36761 -0.061196301 -0.0047274898
-1.0901999 0.0335811 -0.045080699
-1.5574501 -0.208673 0.049249899
-1.56138 -0.16789199 0.023909001
-1.4052401 -0.17826501 0.019105
-1.38026 -0.201428 0.022687601
-0.71152002 0.086074501 -0.097605802
-1.57576 -0.20057499 0.00050719199
-1.45946 -0.218376 0.0026537401
-0.98540097 -0.17027199 -0.037778102
-1.14818 -0.256385 -0.015817599
-0.76650298 -0.12634 -0.077782303
-1.41785 -0.34918299 0.0111147
-1.19526 -0.38144299 0.016438
-1.2401 -0.342181 -0.0073128901
-1.4538701 -0.41662499 0.0204848
-0.97302997 -0.306348 -0.035157599
-0.57068199 -0.259514 -0.072848901
-0.56547701 -0.25667301 -0.091191299
-0.779751 -0.272275 -0.092303097
-1.02716 -0.482393 0.0053364299
-1.0839 -0.431171 -0.0260498
-1.3190399 -0.52206999 0.0108699
-1.2665401 -0.49232501 -0.0036216101
-1.30329 -0.50746697 0.00054759101
-1.02634 -0.434044 -0.0310234
-1.1584001 -0.51322597 -0.0126953
1.64333 -0.337037 -0.033248801
-1.04489 -0.48442501 -0.0294101
-1.09533 -0.513017 -0.023052599
-1.04151 -0.480093 -0.039666299
-1.28227 -0.56967598 -0.0021557701
-1.0904599 -0.51994199 -0.027419301
-0.96331698 -0.564803 -0.00013889599
-0.95817399 -0.58378202 -0.00153832
1.41521 -0.41232699 -0.036195502
1.4208601 -0.41622701 -0.045184501
-1.0792201 -0.61212802 -0.016402701
-1.01719 -0.61013001 -0.016406599
-0.98979801 -0.60566503 -0.017412201
-1.01536 -0.59065998 -0.030467801
-1.09311 -0.61290401 -0.028113499
-0.79607701 -0.54932398 -0.072037198
-1.1025701 -0.66173398 -0.025052199
-1.0022399 -0.69754899 -0.0138033
-1.02231 -0.69004399 -0.022638099
-1.0493 -0.73843199 -0.019819601
1.4299099 -0.65654999 -0.0131932
1.4432 -0.64973301 -0.016888199
1.5965101 -0.68500501 0.0069782301
1.35667 -0.80181003 -0.027256001
1.31187 -0.75124902 -0.071178697
1.25423 -0.82806897 -0.034542199
-0.63474298 -0.93013197 -0.052987602
-1.10422 -1.09273 -0.00966183
-1.0491199 -1.11107 -0.0151982
1.24325 -0.94121403 -0.032594498
-1.14009 -1.1364599 -0.0223912
-1.1343499 -1.13282 -0.025436601
-1.06969 -1.1465501 -0.0118851
-1.09247 -1.13889 -0.022936201
-1.05952 -1.14346 -0.0227465
-1.17865 -1.18058 -0.0213381
-1.10543 -1.2319601 -0.0090610003
-0.55556297 -1.19203 -0.029447
1.17627 -1.07751 -0.0304143
1.21733 -1.10139 -0.0091116596
1.22453 -1.10229 -0.021482401
-1.0438499 -0.70635599 -0.47903401
1.36458 -1.13012 0.00190597
-0.66352499 -1.20125 -0.0643638
-0.484146 -1.2251101 -0.034260102
0.63061899 -1.12047 -0.057014
0.65223098 -1.08226 -0.087991402
0.66320699 -1.12526 -0.055474699
1.28829 -1.11579 -0.0269765
-0.77668297 -1.24289 -0.0451384
-0.64270002 -1.22078 -0.056122199
0.30087799 -1.18189 -0.038416602
0.723405 -1.0980099 -0.084157497
-0.50669098 -1.2415 -0.039494898
1.10552 -1.1031801 -0.062181
1.1765 -1.1309201 -0.033856999
-0.63034803 -1.2297601 -0.0663516
-0.37885299 -1.27709 -0.0152176
0.74541998 -1.08965 -0.108757
-0.43040901 -1.26249 -0.035600301
0.73787397 -1.1104701 -0.100699
0.82536298 -1.14218 -0.067677803
0.84623897 -1.147 -0.0623427
-0.38357401 -1.28058 -0.0268244
-0.23856001 -1.24582 -0.048068602
0.72763902 -1.14138 -0.083792299
0.76554197 -1.08919 -0.14194401
0.73927402 -1.17907 -0.078387901
0.77404302 -1.17474 -0.084997497
0.60568303 -1.19293 -0.088856503
0.74811101 -1.20985 -0.064329498
0.74046099 -1.1950001 -0.082846403
0.742607 -1.2376699 -0.048623201
0.60362399 -1.1977201 -0.099034697
0.698879 -1.23984 -0.054427098
0.73412502 -1.22653 -0.063818701
0.77124202 -1.2223901 -0.065098397
0.77320498 -1.21174 -0.0845742
0.66480303 -1.25361 -0.062528603
1.20785 -1.28652 0.00104199
0.56752598 -1.27678 -0.057514898
0.63075399 -1.26055 -0.072641797
1.15821 -1.27914 -0.0187924
0.62356001 -1.2623301 -0.081196196
0.785474 -1.29168 -0.0464775
0.56686199 -1.3082 -0.051759802
0.61634201 -1.2645 -0.089201301
1.04448 -1.34437 -0.00027300799
1.04237 -1.34247 -0.0110135
1.34925 1.6398 0.0409372
-0.193112 0.85880297 -0.020648399
1.09936 0.356071 -0.099760301
0.99918699 -0.15105499 -0.058538198
-0.233567 -0.30290201 -0.073550202
0.92328799 -0.248769 -0.105885
-0.26227301 -0.44123 -0.098270603
-0.51733601 -0.78303897 -0.107077
1.19854 -0.74201101 -0.055004701
1.0820301 -0.789783 -0.065465502
-0.69248098 -0.92897999 -0.088394098
-0.33624801 -0.92653799 -0.073227398
1.37802 -0.84045702 -0.0523718
-0.235412 -0.99090999 -0.0582841
-2.05322 1.9909101 0.19791099
-1.93669 1.92661 0.209986
-0.57201302 2.2281599 0.139722
1.15792 2.5764 0.0496259
-1.87859 1.88665 0.20417801
-1.4302599 2.3218901 0.112989
-0.87189299 2.8110399 0.0111588
1.18929 2.1636901 0.1187
-2.0139599 1.79483 0.210687
-1.9460599 1.80586 0.20168599
-1.05689 2.66118 0.0205418
-0.959764 2.8432 -0.018424399
-0.901429 2.74598 -0.00711266
0.114779 2.19121 0.099537201
1.35412 2.0587499 0.119227
-1.76905 1.6248 0.22356699
-1.25651 1.9776599 0.14647301
-0.97258598 2.8771701 -0.041322101
-0.58540499 2.16784 0.102766
-0.61752999 2.4954901 0.027890399
-1.9997 1.71766 0.19227199
0.27629301 2.0032599 0.117058
-1.9272799 1.68287 0.18718199
-1.79896 1.58443 0.206043
-0.50295103 2.12361 0.082638897
-1.5329601 1.79272 0.153098
-1.34364 2.0851099 0.089586899
-0.75775403 2.4693999 0.0038594599
1.6419801 1.7816401 0.136259
-1.94221 1.52195 0.207921
-0.84776598 2.6192701 -0.035418101
-0.59398198 2.0152299 0.092948496
0.50516403 1.89437 0.112035
-0.116089 1.97141 0.092368498
0.078568503 2.0538499 0.073904499
-1.9264899 1.5600899 0.187162
-1.86322 1.60115 0.170119
-1.27549 1.78153 0.127057
0.66405499 1.98762 0.069805697
-1.43185 1.80687 0.115158
-1.1764899 1.758 0.124742
-0.66210097 2.5641799 -0.056759499
1.8177299 1.83198 0.0930674
-1.53787 1.6783201 0.138317
-0.93709201 2.42788 -0.033203602
-0.75656301 2.0463099 0.050521199
0.237904 1.99359 0.057388701
-1.34048 1.71109 0.11576
-1.24331 1.6973799 0.117393
-1.21889 1.72109 0.112253
-0.57954299 2.21189 -0.0032492301
0.86574697 1.70287 0.106806
2.1085801 1.78591 0.076065399
-1.86685 1.49299 0.153828
-1.48102 1.6185 0.123755
-1.29263 1.93827 0.047975399
0.27749401 1.85576 0.059936799
0.48881501 1.90388 0.048477799
-1.48823 1.80572 0.072984703
-0.82985902 2.24071 -0.0308511
-0.49915001 1.78617 0.072307803
1.01765 1.72346 0.080675296
-1.26437 1.60146 0.112459
-0.138199 1.7376 0.076889403
0.428727 1.82446 0.052025899
-1.39355 1.71579 0.079085201
-0.542934 1.76508 0.063181102
0.491191 1.8135999 0.047966499
0.62674499 1.8630199 0.035943199
-1.5339299 1.52906 0.117598
-1.3793401 1.45262 0.134748
-1.20515 1.5908 0.101227
-1.00161 2.14785 -0.031644501
0.0074172402 1.78116 0.050474498
0.042881999 1.9461 0.0117541
-0.89120799 2.05019 -0.017047299
-0.56392598 1.78475 0.045861799
1.19892 1.4471101 0.119532
-1.5612299 1.66725 0.069815204
-0.847583 2.1328199 -0.044706602
-0.662893 1.72126 0.053615201
-0.51842701 1.7768199 0.040283501
-1.6766 1.69486 0.056214899
0.67183298 1.71851 0.041643899
0.86154699 1.72075 0.042012598
1.3512501 1.50036 0.092516601
-1.24686 1.4653701 0.102893
-0.96530497 2.1045301 -0.053225402
0.0114642 1.7596 0.0268133
0.049175601 1.66447 0.0500427
-1.20775 1.55304 0.074373797
-0.802167 1.9346 -0.0203468
0.25964701 1.6035399 0.058172401
-1.48226 1.39548 0.108048
-0.86038601 1.95716 -0.033229802
0.85143203 1.5771101 0.055531699
0.999641 1.62991 0.041914798
-1.3989201 1.404 0.098755501
-0.71788102 1.84883 -0.014395
0.19987001 1.63904 0.033195
-1.3006001 1.37588 0.098133601
0.247922 1.6023901 0.036181498
0.40901801 1.64529 0.025573701
-1.91585 1.21605 0.132342
-1.6780601 1.56222 0.037326101
-1.25661 1.36049 0.087466598
1.20375 1.4536999 0.059038099
-1.44587 1.30406 0.0959718
-1.34398 1.34646 0.084657401
-0.95273602 1.9399199 -0.068130903
-0.81298202 1.80019 -0.033321399
0.60312498 1.57169 0.0221733
1.19642 1.38784 0.062345602
1.34658 1.45477 0.0441259
-1.40272 1.28651 0.086890303
-0.74219102 1.7664599 -0.0397962
-0.65959299 1.7634 -0.038934499
-0.17443299 1.5129 0.024179
-0.0078693703 1.45851 0.038571499
-1.30515 1.33128 0.066784702
-1.2064101 1.31519 0.0709977
-0.97073102 1.70296 -0.030181499
-0.89689797 1.89747 -0.081205301
-0.57909399 1.68577 -0.0269177
0.036814298 1.46529 0.0300921
0.58833402 1.48938 0.0212746
-1.53677 1.2039599 0.093407698
-1.47991 1.2453901 0.083030097
0.633407 1.4707299 0.0199416
0.77938402 1.51535 0.0083426498
-0.89395797 1.6427 -0.0309831
-0.70204902 1.59124 -0.015807999
-0.0175386 1.4081 0.029794799
-1.41268 1.21289 0.0776788
-1.3239501 1.17801 0.086681001
-1.6151299 1.15944 0.085224703
-1.23857 1.1792099 0.078324303
-0.66027701 1.59377 -0.0333407
0.77666098 1.41115 0.0141095
0.81947899 1.4114701 0.0143187
-1.65338 1.10765 0.091485299
0.93727702 1.34454 0.025388099
0.99305397 1.26446 0.048059799
1.57217 1.1039 0.091628
-0.97471398 1.71047 -0.079909898
0.377895 1.28248 0.036466502
1.79308 1.15149 0.071959503
-1.4861799 1.141 0.068821497
-1.18072 1.15316 0.064651303
-0.86169899 1.60223 -0.0584381
0.22385401 1.31309 0.0198601
0.422874 1.35342 0.00956978
0.95909601 1.35568 0.0076908399
1.14703 1.39726 -0.00252902
-1.35013 1.03616 0.090120301
-0.79221702 1.69423 -0.091472797
-0.59331298 1.54775 -0.051905699
-0.184641 1.33249 0.0082038101
1.69087 1.08562 0.077163696
-0.205173 -1.4587801 0.77409601
0.367681 1.33008 0.00134587
0.56735402 1.33775 -0.00075281103
-1.5211999 1.03751 0.075796902
-1.32445 1.08393 0.062725604
-0.58625197 1.43961 -0.037023898
1.13644 1.29319 0.0044941902
-0.79136997 1.54893 -0.0752303
-0.66161299 1.48241 -0.056727301
-0.034793898 1.29019 -0.0020967801
1.12832 1.05458 0.065585896
-1.40802 1.06033 0.0550831
-1.67678 0.99675602 0.065721102
-1.58367 1.2392 -0.0040520201
-0.77433902 1.26088 -0.0085227098
-0.59019703 1.13447 0.027935401
0.59713 1.22357 0.00251101
1.26294 1.05548 0.051528402
-0.19625901 -1.46433 0.765625
-1.33734 0.98646897 0.062194001
-1.23549 0.95445502 0.0719418
-0.58401 1.39958 -0.056607202
0.78060198 1.12107 0.025201701
-0.69204998 1.3894 -0.061027799
0.0054017799 1.1908 -0.0037277599
-1.4683501 0.91274899 0.069334097
-0.55234098 1.1916699 -0.0111926
0.204925 1.20992 -0.0156123
0.73605001 1.17152 -0.0044722999
0.93325901 1.20812 -0.0134294
-0.88593203 1.43722 -0.090949699
0.76372999 1.03309 0.0299036
-1.3983001 0.92639399 0.051494598
-1.26949 0.80666298 0.085117199
-0.76302999 1.3383501 -0.069821
0.15180001 1.14474 -0.0109909
0.34834099 1.21073 -0.030726099
0.37556201 1.10945 -0.000994973
-0.64315599 1.23342 -0.0465624
-0.53514397 1.04495 0.0103092
0.195465 1.1415 -0.018744901
0.91681999 1.13512 -0.0139409
-1.51226 0.82215703 0.066617399
-1.277 0.92738497 0.035591699
0.92646903 0.93052602 0.040768601
1.12161 1.00685 0.018695399
-1.28715 0.75521201 0.0732022
-0.852835 1.29079 -0.087225601
-0.692747 1.22474 -0.066906698
0.34016499 1.08149 -0.0216063
1.0688699 0.97381401 0.0136
1.28478 1.10901 -0.0257969
-1.39118 0.81025499 0.050193202
0.57652199 1.05767 -0.0201934
-1.25814 0.76592302 0.056661401
-0.73735601 1.15099 -0.060403701
-0.59271801 1.1794699 -0.0682754
-0.197602 0.97742999 -0.0050251698
-1.17071 0.78144503 0.044626899
0.71297902 1.02274 -0.0233835
-1.56154 0.80417901 0.0296396
-0.86845201 1.20946 -0.093943201
-0.61875099 1.14583 -0.073960602
0.56211501 0.96399802 -0.0133926
-1.43023 0.76930499 0.034233499
-1.32446 0.72990799 0.045826901
-0.0674951 0.93123698 -0.0123162
-0.79700202 1.16294 -0.095440902
-0.0198364 0.86657101 -0.00029361801
0.123606 0.94031203 -0.021994401
0.69633698 0.930525 -0.016897099
-1.33763 0.73988903 0.0293348
-1.2399499 0.71070898 0.037723999
-0.68172503 1.07723 -0.076068901
0.736489 0.78968698 0.0217623
0.884435 0.92358601 -0.020957001
0.91149801 0.85027599 0.0041842801
-1.65882 0.66708398 0.043491501
-1.55226 0.68103802 0.0399471
-1.18322 0.69356698 0.0294296
0.13319901 0.83991301 -0.0122142
0.86804599 0.86963099 -0.018209999
1.07266 0.91400403 -0.0302867
-1.41933 0.703686 0.018571701
-0.88191599 1.1033601 -0.10903
0.36484501 0.896604 -0.036132801
0.91346103 0.73473299 0.020041101
-0.75088 0.97659099 -0.075317703
-0.72239202 1.07891 -0.108527
-1.77433 0.58887899 0.039201502
-1.35445 0.69811499 0.0053639198
-0.62304598 0.99081099 -0.087265
-0.218437 0.79560298 -0.0186469
-1.58816 0.57929999 0.036403999
0.31290799 0.80415398 -0.028935499
0.35342899 0.74974 -0.0102232
1.08986 0.80764002 -0.024590099
-1.39055 0.56813598 0.034033898
-1.3243099 0.60023499 0.022691401
-0.68694699 0.98561198 -0.102241
-0.94900799 0.83362597 -0.060112402
-0.793957 0.98255801 -0.109291
-0.55952901 0.78579599 -0.0435916
-0.096475497 0.90032101 -0.078104399
1.1882 0.62615597 0.0221326
-1.33746 0.55294698 0.0234193
-0.61627799 0.69207001 -0.017416799
-0.0412044 0.800542 -0.051451098
0.49107599 0.775778 -0.040393401
0.67296398 0.746984 -0.029042101
-1.70262 0.51999402 0.025623901
-1.6486501 0.52687502 0.0243761
-1.48787 0.447411 0.0526269
-1.26298 0.53636098 0.0233374
-1.1682 0.51434201 0.031232299
-0.85437602 0.91874099 -0.104774
0.529562 0.71009803 -0.0248066
0.712659 0.72884703 -0.029304201
-1.45315 0.521321 0.020137699
-0.69749302 0.84473902 -0.086337201
-0.60544598 0.83165503 -0.081201904
-1.57947 0.48473501 0.0240226
-1.1506 0.54125202 0.0070869499
-0.023035301 0.65603602 -0.023506699
0.107785 0.66758299 -0.027439401
0.66597003 0.73653299 -0.048748098
0.84560603 0.722727 -0.041048199
-1.4557 0.459782 0.0258261
-0.98080099 0.68990898 -0.050168201
0.70007402 0.66940498 -0.0312331
-1.75365 0.43751401 0.024441401
-1.6533099 0.45347199 0.019440399
-1.31463 0.471607 0.0158327
-1.19909 0.45848599 0.021358799
-0.94578999 0.72390801 -0.078466304
-0.76618499 0.79695302 -0.102022
-0.56975502 0.67538702 -0.059030902
0.099585697 0.60787702 -0.0294073
-1.25969 0.450277 0.00884018
-0.66241097 0.74033302 -0.089401297
0.87990701 0.62195802 -0.034677502
1.03842 0.54807597 -0.0068371701
-1.59879 0.408306 0.0137144
-0.170221 -1.44277 0.684214
-1.43054 0.39841601 0.0112009
-1.3314199 0.41690299 0.0053509302
-0.60464901 0.72483999 -0.099425599
0.28747001 0.56626499 -0.035026301
1.0064501 0.59869403 -0.040494502
1.04761 0.55827498 -0.024997501
1.20154 0.62945497 -0.048529699
-0.81091398 0.64459503 -0.080084004
0.328428 0.53485698 -0.030566599
0.51075798 0.59270602 -0.0494885
-1.7091399 0.341607 0.0149518
-1.61725 0.32819 0.020283399
-0.68385202 0.64253199 -0.086040199
-0.54089898 0.49987599 -0.031764999
-1.2621599 0.36515999 0.0023089999
-0.224574 0.46290699 -0.022885
-0.096201502 0.559295 -0.0587756
-1.36973 0.223809 0.046154801
-1.24224 0.44624001 -0.0349322
-0.74009699 0.62183702 -0.095172003
-0.64501297 0.59481603 -0.083778001
0.45749101 0.481868 -0.0337345
0.51114398 0.50652498 -0.040139198
0.63843203 0.52383 -0.045664601
-0.57611102 0.459667 -0.0401005
-1.48417 0.29868999 0.0023294
-1.31572 0.18359201 0.047105301
-0.090398498 0.418174 -0.028177099
-1.66599 0.25505799 0.0091074603
-0.601955 0.57059699 -0.098358497
0.089278102 0.42726499 -0.037835501
0.81913197 0.49300799 -0.054590899
-1.29319 0.28124699 -0.0045512598
-0.77455401 0.56624299 -0.106596
0.84016401 0.381569 -0.019213
-1.59975 0.220175 0.0073705502
-0.69638002 0.58039701 -0.119288
-1.69881 0.23431 -0.0059642899
-1.52502 0.26121399 -0.0155564
-1.02635 0.27194199 -0.0122096
0.80610198 0.438039 -0.056510001
0.83672398 0.329889 -0.0135623
0.97832298 0.43900001 -0.053843599
-1.36059 0.23447099 -0.0098762196
0.30005899 0.360728 -0.039422199
-1.68241 0.194766 -0.0057055899
-0.55417502 0.33837599 -0.047784202
-1.62449 0.18354 -0.0082254997
-0.78361201 0.366602 -0.0696356
-0.757245 0.47840801 -0.113245
0.25225499 0.31308699 -0.037101999
0.442707 0.39780399 -0.067042902
0.97031897 0.35486901 -0.043592799
1.00078 0.27965 -0.0132881
-1.29058 0.179251 -0.0105916
-0.246961 0.311497 -0.0482517
-1.5415601 0.164317 -0.0148851
-1.36879 0.169744 -0.0150496
-0.616202 0.42416701 -0.105922
1.11243 0.238002 -0.0108518
-0.108797 0.248246 -0.037471101
-1.30207 0.111938 -0.0060779899
-0.75589198 0.37058401 -0.102522
0.43049699 0.26461601 -0.0449568
0.46965301 0.29512799 -0.056402899
-1.64525 0.076548196 -0.0036543601
0.64832801 0.22188801 -0.031873599
-1.23893 0.119048 -0.0241095
-0.763632 0.232356 -0.063640498
-0.64006197 0.19202501 -0.043749899
-0.544056 0.173924 -0.036974501
-1.53351 0.0696624 -0.0153919
0.59268302 0.23216499 -0.052220002
0.76748401 0.196858 -0.033942301
-1.43391 0.074571602 -0.023228301
0.115229 0.175442 -0.042074598
0.239317 0.143916 -0.042194501
0.76596397 0.21067201 -0.062807001
0.81025797 0.18442699 -0.050179701
0.93958497 0.185091 -0.048989698
-1.62062 -0.025958801 -0.00731117
-1.51758 -0.0198486 -0.0078257797
-0.74959803 0.26331499 -0.115118
-0.61172199 0.114779 -0.0496924
-0.56732702 0.134039 -0.0576181
0.105296 0.141875 -0.051132601
0.97359002 0.16480701 -0.0465279
0.92819297 0.1595 -0.053876001
-1.50561 -0.196628 0.053912301
-1.38413 -0.12761401 0.025761699
-1.05159 -0.0100669 -0.019379601
-0.60802603 0.234209 -0.117379
1.104 0.150915 -0.054773401
-1.5733401 -0.084474303 -0.011682
-1.35583 -0.0244679 -0.034963701
-0.73438501 0.036435101 -0.049812999
0.45240399 0.101893 -0.058545999
-1.3951 -0.20426001 0.036654402
-0.62234199 0.037293401 -0.055772301
-0.57054597 0.107215 -0.085659601
-0.251398 0.023767799 -0.051331598
0.404035 0.0481616 -0.052146502
0.44172201 0.083664604 -0.067442797
0.56808102 0.035747901 -0.042586502
-0.74957401 0.14021599 -0.119637
-0.57396102 -0.0046303398 -0.0516329
-0.078721002 0.0231895 -0.055875201
-1.5346 -0.25047499 0.0254886
-0.070221096 -0.038745798 -0.0436951
0.046087001 -0.0115294 -0.0542056
0.57298702 0.0146578 -0.056410499
0.74103397 0.0454515 -0.067771196
-0.55460799 -0.044712499 -0.057406701
0.60774398 -0.0126083 -0.051004302
0.77712899 0.032599501 -0.067484103
-0.69933099 -0.070346102 -0.056261901
-0.66296601 0.027929399 -0.10095
0.73005199 0.0050847898 -0.072931297
0.766177 -0.057430901 -0.042589199
0.893646 -0.038993198 -0.049022298
-0.59537703 -0.028184401 -0.0908847
0.220726 -0.067588799 -0.056121498
-0.99225003 -0.167392 -0.0417744
0.257631 -0.075867303 -0.059332401
0.88950801 -0.0992392 -0.043934502
0.94781798 -0.0021631401 -0.087054498
1.62103 -0.105048 -0.025007401
-0.73971802 -0.157472 -0.0556763
-0.67328203 -0.135791 -0.064368799
-0.63511598 -0.13959 -0.062393598
-0.55754602 -0.14706799 -0.057981499
0.37641799 -0.115832 -0.052844301
-1.10399 -0.234456 -0.035948001
-1.0398901 -0.216068 -0.043945201
-0.26073399 -0.155166 -0.055173099
1.6387 -0.092957899 -0.044167101
-0.649997 -0.088767298 -0.103234
1.05402 -0.105758 -0.059839498
-1.32552 -0.34360799 -0.00319191
-0.136188 -0.191726 -0.0517825
-1.22579 -0.368009 0.0032760201
-1.00366 -0.241576 -0.0560105
-0.69486499 -0.205292 -0.064594403
0.415939 -0.172425 -0.057179101
0.57628798 -0.15506101 -0.060987301
-1.06732 -0.26618999 -0.0520209
-0.60505199 -0.217857 -0.064585201
0.52994102 -0.201747 -0.055780102
0.70158899 -0.180609 -0.061824601
-1.31384 -0.43433201 0.0113254
-0.78029501 -0.156532 -0.115432
-0.71111 -0.166556 -0.109163
-0.63826501 -0.242824 -0.069465801
-0.58643597 -0.186428 -0.095847599
0.037253302 -0.24733 -0.052399501
-0.99298799 -0.34610599 -0.0333056
0.0695026 -0.22036099 -0.073074698
-1.27213 -0.41090801 -0.0147964
0.72684801 -0.289814 -0.036280401
0.908023 -0.213559 -0.069601297
-1.4483 -0.49557999 0.0077734902
-1.38623 -0.52324897 0.023566401
-0.75455099 -0.314695 -0.067823
0.22493599 -0.263639 -0.070724398
-1.33833 -0.50362301 0.00696526
-1.2716 -0.51044202 0.012362
-1.06698 -0.44962099 -0.0145402
-0.68245602 -0.29224101 -0.086464897
-0.62716198 -0.331709 -0.0650962
-0.63508397 -0.25846601 -0.102316
0.85682499 -0.26418701 -0.062723801
-1.01688 -0.424867 -0.0340297
0.87686402 -0.32868701 -0.035977799
1.03119 -0.2376 -0.079988502
0.230033 -0.31628001 -0.067742698
0.35504699 -0.302463 -0.072941601
0.401068 -0.33296099 -0.0617151
-1.43062 -0.56677699 0.0067417799
-1.2913001 -0.546893 5.1575798e-06
-1.1546201 -0.52457702 -0.0088526001
-0.73253798 -0.370323 -0.079573303
-0.61282402 -0.39222601 -0.0661816
1.6182899 -0.351859 -0.026036801
-1.10007 -0.50864702 -0.0234804
-1.02415 -0.49724299 -0.027654801
0.35707101 -0.35852501 -0.066187598
0.40162399 -0.39224401 -0.045755502
0.51239401 -0.352597 -0.064529397
-1.3095 -0.59748298 0.0104131
-0.67165899 -0.41098201 -0.0731484
-0.26779601 -0.439156 -0.0466302
-0.102174 -0.41746199 -0.054568801
-1.2456501 -0.58368403 -0.0034199001
-0.99893701 -0.51667798 -0.033372801
1.41512 -0.37040201 -0.044508498
-1.36274 -0.63252002 0.0124759
-1.10197 -0.60788202 0.0057795201
-0.15839601 -0.43770701 -0.062419701
-0.73905301 -0.46563199 -0.070254199
-0.101728 -0.48432401 -0.041893002
0.0093326699 -0.41983101 -0.075472496
0.0411475 -0.39805701 -0.085517801
0.69805902 -0.41734299 -0.054680899
-0.64763898 -0.48704401 -0.063850701
-0.57068801 -0.45137399 -0.083203197
1.6101 -0.50206703 0.0086830603
-1.29013 -0.68300498 0.018932899
-1.09237 -0.59749198 -0.023050601
-0.80113697 -0.45602199 -0.093366697
-0.69713199 -0.468678 -0.084858403
-0.60462099 -0.48656601 -0.072629802
0.66412997 -0.455185 -0.051637899
0.83953297 -0.38265499 -0.086025402
-1.18431 -0.67826802 0.0117727
-0.98309898 -0.62604898 -0.0124033
0.022041701 -0.50145203 -0.053440999
0.176636 -0.50618201 -0.047145899
0.210701 -0.509965 -0.051022898
-1.09454 -0.655177 -0.022612499
0.16898599 -0.52959299 -0.056706201
0.85099101 -0.47770101 -0.0641836
1.46901 -0.47956201 -0.0438729
1.61568 -0.537377 -0.0058029401
-1.31444 -0.74503201 0.0141349
-1.2752399 -0.724343 0.00377554
-0.66487402 -0.544954 -0.082564197
-0.28491899 -0.55908602 -0.061753999
0.33265999 -0.46228999 -0.099329598
1.61983 -0.61008197 0.0278237
-1.0082 -0.69126397 -0.0154513
-0.74941498 -0.52815503 -0.101916
0.96432298 -0.50435299 -0.061551701
-1.26366 -0.71760201 -0.0171293
-0.59468901 -0.58155298 -0.0757678
0.33649001 -0.52488202 -0.088198699
0.36893401 -0.56230903 -0.0644278
0.51806098 -0.55737603 -0.061624799
1.56006 -0.55927199 -0.025705
-1.35759 -0.80172801 0.014399
-1.09247 -0.76023901 -0.0098315002
-1.03459 -0.76194102 -0.0074265902
-0.76215398 -0.64106202 -0.072482802
-0.673756 -0.61045098 -0.087479502
-1.32645 -0.80305701 -0.000189645
-0.58090597 -0.63577902 -0.076628096
0.63703197 -0.57902902 -0.069188699
-1.00608 -0.76936603 -0.0180187
-0.73699403 -0.61689103 -0.101077
-0.65293902 -0.646483 -0.0847582
-0.61618102 -0.642075 -0.081914097
0.0391615 -0.64242297 -0.060489301
1.33207 -0.55298299 -0.065406598
-1.11422 -0.82235301 0.00313888
-0.58501601 -0.59243703 -0.118475
1.4503599 -0.63084799 -0.0247197
-0.76561201 -0.70110899 -0.068085201
0.63577503 -0.63099802 -0.062526003
0.66648299 -0.63300002 -0.060202599
-1.30718 -0.87291002 0.0115725
-0.70725799 -0.68901199 -0.082691699
0.153854 -0.60334498 -0.10546
0.78335702 -0.62669498 -0.067894697
0.82497197 -0.62421697 -0.066847302
1.5129499 -0.69680798 0.00229839
-1.00765 -0.83283901 -0.0199492
-0.72690099 -0.72981399 -0.074865103
-0.58325797 -0.73802203 -0.063780203
-0.55823702 -0.70249301 -0.086407803
0.77932501 -0.666713 -0.059652898
0.82547098 -0.64781302 -0.069912001
1.4703 -0.68116403 -0.024294499
-0.64455199 -0.73959601 -0.074210502
0.94339502 -0.635979 -0.081297003
0.345458 -0.68582398 -0.079636998
1.49046 -0.63756698 -0.066666901
-1.07937 -0.899894 -0.0036812599
1.43989 -0.736866 -0.021797501
-1.03001 -0.89622498 -0.021460401
-0.69605702 -0.79684198 -0.073479503
-0.54609799 -0.757137 -0.092889197
0.46327701 -0.71529299 -0.082474798
1.39015 -0.70748901 -0.049865399
1.45314 -0.73354399 -0.038845502
-0.76728702 -0.87324297 -0.042979602
-1.03878 -0.969872 0.00183446
1.35566 -0.72946697 -0.0610568
-1.12953 -0.95195198 -0.021780901
-0.54499799 -0.785779 -0.108519
0.64030498 -0.76445502 -0.075688899
-1.02135 -0.97507799 -0.019069999
1.30127 -0.78378898 -0.049324799
1.43926 -0.81472802 -0.0238003
1.54366 -0.85350299 0.00658848
-1.08205 -0.98857301 -0.0205728
0.762209 -0.79242402 -0.0776999
1.3454601 -0.84433103 -0.016039699
-0.61979198 -0.95612103 -0.032474499
1.24418 -0.80395103 -0.054083701
-0.352429 -0.96276098 -0.0239395
1.18899 -0.81361598 -0.060436301
-1.09534 -1.04214 -0.0095699802
-1.00823 -1.04011 -0.0066513801
-0.51327503 -0.929726 -0.063161597
-0.23684999 -0.98450202 -0.0288848
1.31634 -0.846111 -0.055778999
-0.39928201 -0.98184597 -0.047497299
1.43496 -0.932742 0.00246068
-1.09881 -1.09896 -0.0029786001
1.3977799 -0.92097402 -0.0169622
-0.113205 -1.0054801 -0.034212202
-1.03227 -1.10411 -0.0133885
1.26044 -0.90022999 -0.0546728
-0.425881 -1.10013 -0.0053463401
1.37106 -0.92808199 -0.044565
-1.07581 -1.14557 -0.0101817
-0.134152 -1.02529 -0.054712299
-0.584728 -1.05981 -0.060508501
1.53404 -1.0541 0.040442999
0.164653 -1.0732599 -0.021033401
1.36321 -1.01728 -0.00373779
1.53049 -1.0463099 0.027304299
-1.02956 -1.1715 -0.0153276
1.1595401 -0.98836201 -0.042864598
1.2393399 -0.98952699 -0.039192799
-0.59768802 -1.1226799 -0.039487701
0.13544901 -1.08112 -0.034040999
-0.34707901 -1.15336 -0.0123029
1.19933 -1.02991 -0.0268296
1.33983 -1.0391999 -0.0124649
1.4373 -1.07585 0.021713199
1.27048 -1.05027 -0.015796401
-1.1105 -1.22411 -0.0136312
-1.0415 -1.21724 -0.0147858
-0.561185 -1.15113 -0.0425562
1.42844 -1.082 0.0099045504
1.49088 -1.1042 0.031471498
1.53065 -1.09539 0.024878601
-0.70803899 -1.15754 -0.053171098
-0.55863601 -1.19059 -0.019874699
0.024508599 -1.13486 -0.0415673
1.09726 -1.05896 -0.044004999
-0.132836 -1.16861 -0.030699899
-0.467127 -1.19402 -0.038827401
0.030978199 -1.16687 -0.032209501
1.2190599 -1.10518 -0.016951799
-0.42981699 -1.2122999 -0.031318299
1.10606 -1.0526201 -0.073532797
1.176 -1.07101 -0.055273999
1.28664 -1.12132 -0.016312299
0.66672701 -1.1226701 -0.059598599
-0.508901 -1.23342 -0.044327401
-0.421211 -1.2420599 -0.032112598
1.18841 -1.1054699 -0.0522734
0.299288 -1.19239 -0.041100498
0.73954397 -1.14545 -0.0540784
-0.085442901 -1.2612 -0.0146067
0.67751402 -1.1463 -0.067097902
-0.23841099 -1.25072 -0.041933302
1.21527 -1.15623 -0.034412
0.79366899 -1.06461 -0.160335
0.81336701 -1.15212 -0.080811001
0.91160399 -1.19868 -0.033983301
1.1759 -1.18176 -0.031173799
0.57192498 -1.22473 -0.0512035
1.0746599 -1.14999 -0.085381404
0.86206901 -1.21802 -0.0467011
0.56079501 -1.2144901 -0.089737698
0.70091099 -1.17428 -0.116627
0.775033 -1.23325 -0.057573698
0.82563603 -1.1903501 -0.094144396
1.0237 -1.24742 -0.037253801
1.48037 -1.27669 0.022010701
0.62032998 -1.26414 -0.058130398
0.66483003 -1.26527 -0.053911101
0.76625502 -1.25202 -0.059392199
0.837403 -1.2022001 -0.101754
0.87953901 -1.27338 -0.032418601
0.76928401 -1.3037601 -0.019882601
1.15452 -1.27968 -0.015257
-0.75852698 2.2722099 0.0432209
1.6128401 1.74457 0.14051101
-0.56165498 1.9604 0.094997801
-0.128747 2.0304201 0.075219899
0.10212 2.3609099 0.00140936
0.52018797 1.98747 0.081508197
0.20601501 2.2145801 0.018017899
0.641348 1.96589 0.0698798
1.924 2.1314399 0.028798301
-0.93386698 2.37905 -0.026043801
0.122257 2.0174301 0.0489177
0.90957099 1.85956 0.066594601
-0.72999001 1.81501 0.071689203
-0.51381898 1.82135 0.067229301
-0.167383 2.0582399 0.0128857
0.607557 1.7527 0.079648897
1.03171 1.8256201 0.044570498
0.411008 1.7388 0.040270999
0.0918734 1.60421 0.046692502
0.356029 1.79388 -0.00194258
-0.577371 1.602 0.0329451
0.175349 1.70179 0.0053264298
0.65336603 1.62536 0.026951401
1.04993 1.3872 0.072622202
-0.69391 1.9342 -0.080978699
0.061147299 1.64168 -0.0050106398
-0.51567501 1.42643 0.037220798
-0.17002299 1.5464799 0.0068401098
-1.2576801 1.20206 0.069307096
-1.02312 1.85074 -0.105201
0.82425803 1.3432 0.0148516
1.81144 1.17479 0.061515301
-0.173749 1.29738 0.0154111
0.173985 1.29726 0.0130747
1.02807 1.21556 0.037108202
0.34623599 1.25955 0.0088242898
0.806669 1.35849 -0.017080201
1.23931 1.25295 -0.0011495301
1.28256 1.21188 0.0092971604
0.123118 1.21472 -0.0072943699
0.64943701 1.38355 -0.054805402
0.86039197 1.07587 0.034830701
0.32422599 1.10789 0.0102941
1.30901 1.1961 -0.042539701
-1.1901 0.65450299 0.100373
0.33484799 0.95616102 -0.0019260501
0.799766 1.23633 -0.0868873
-0.866045 1.36279 -0.14704999
0.088128202 0.94468898 -0.0128998
-1.26618 0.75577402 0.025992099
0.95851701 0.939897 -0.021206001
0.79495299 1.05296 -0.074366897
1.04465 0.94881701 -0.039233599
-0.74901497 0.78127998 -0.0053519402
0.87557399 1.0052 -0.078440301
0.29149401 0.79847002 -0.0241748
1.05796 0.90244597 -0.068246
1.22078 0.78828299 -0.0439272
0.64493501 0.70484197 -0.049216799
0.73900402 0.61802799 -0.016626099
0.098971903 0.53820902 -0.0228872
0.407552 0.48301899 -0.00135356
0.51384902 0.59518301 -0.038907599
1.1983401 0.69581997 -0.0706653
0.335168 0.467217 -0.0096337004
0.628254 0.68620998 -0.086594902
0.79326999 0.376591 0.027210301
1.0757 0.47726801 -0.0057566701
0.79241198 0.47103599 -0.0358174
-0.61570102 0.35793 -0.0366625
0.78565198 0.490688 -0.089128703
-0.238097 0.30697599 -0.040945798
-0.62875801 0.435801 -0.114943
-0.53654301 0.128371 -0.0202969
0.132331 0.16868401 -0.027398
0.50042999 0.217663 -0.043182999
0.745785 0.25881499 -0.0575528
0.27957901 0.102077 -0.0123364
0.57356399 0.199766 -0.050894301
0.67255998 0.211418 -0.052902799
0.28862801 0.130224 -0.0876415
-0.229761 -0.049531199 -0.029794101
0.386439 0.020739799 -0.052057602
0.481637 0.0082275597 -0.0439725
0.711541 -0.00070788403 -0.0356002
-0.072105899 -0.0051573999 -0.080304697
0.271005 -0.0299685 -0.060343899
0.34622699 -0.11036 -0.054206599
0.20362 -0.049793102 -0.100936
0.53627002 -0.095482402 -0.072214402
1.62342 -0.13652 -0.0276837
0.51112801 -0.225529 -0.0557734
1.66793 -0.15299501 -0.061970402
0.170344 -0.258443 -0.0639586
1.574 -0.193992 -0.060881201
-0.00046961999 -0.208377 -0.108367
0.106893 -0.300295 -0.058933999
0.68240899 -0.37953201 -0.019910799
1.6680501 -0.27535301 -0.061991099
0.34303999 -0.42785901 -0.049572699
1.42734 -0.33993399 -0.063092403
1.4928499 -0.47749001 0.0096827503
0.149294 -0.52239299 -0.068408601
1.5344501 -0.37745699 -0.105717
0.54486698 -0.52708602 -0.065716401
0.30799699 -0.58703399 -0.057718799
0.68831903 -0.45598099 -0.120563
1.59261 -0.52178597 -0.050722301
0.69661599 -0.56559902 -0.071134597
1.51165 -0.60596102 -0.017101999
0.053601701 -0.631356 -0.069333397
0.137569 -0.61783201 -0.094548099
0.94099301 -0.63968801 -0.065376103
0.36110899 -0.67940301 -0.079060301
0.44817099 -0.65569502 -0.109493
0.77559 -0.70388901 -0.064997204
0.65180802 -0.76166701 -0.0632855
0.77463901 -0.71517301 -0.12930501
1.15346 -1.08224 -0.026115799
-0.048734698 -1.19478 -0.0383115
1.37923 -1.12858 -0.0086042797
1.4592201 -1.1683199 0.0094514498
0.768498 -1.1455899 -0.0671314
-0.814264 2.02794 0.083021097
-0.53842998 1.87033 0.070634402
0.55773598 2.0286 -0.0517979
0.71939498 1.69809 0.0194564
1.16465 0.72731298 -0.036241099
0.70405698 0.38906699 -0.061565999
0.94120002 0.49523899 -0.120997
1.13828 0.431914 -0.11263
0.53229898 0.20418 -0.067698702
0.68896103 0.21918 -0.0864667
0.864465 0.100247 -0.051357102
0.51428503 0.00077010499 -0.072271302
0.66150802 -0.00667078 -0.0818993
0.83520901 -0.12590399 -0.072746404
1.02097 -0.13497201 -0.082563803
0.62737203 -0.28761801 -0.071643203
0.803855 -0.325991 -0.067272298
0.919442 -0.38952699 -0.043687101
-0.232453 -0.246226 -0.0912432
0.294254 -0.41395599 -0.0767873
0.104834 -0.53680098 -0.092901498
0.28268301 -0.609936 -0.097407401
0.41473299 -0.63593501 -0.092512801
0.58467698 -0.67307198 -0.082606599
-0.71791297 2.2600501 0.22871201
1.90813 -0.21855099 -0.110061
1.80067 -0.53909099 -0.083852597
-0.172471 -0.50925499 -0.120452
0.78733802 2.5689399 0.098079897
-0.62132102 2.3276801 0.231342
-0.608706 2.1693799 0.226422
-0.79727697 -0.21697301 0.69823498
-0.90823698 -0.10977 0.66283798
-0.61135602 -0.680884 0.76144397
-1.20052 0.65799302 0.49169299
1.08742 -0.98355103 0.0134991
1.0883501 -1.03283 0.039434198
2.5657201 2.4653001 -0.098245397
2.60344 2.0697 -0.18666799
-0.52499199 1.33143 0.035826501
2.3251801 1.24872 -0.17178901
2.3169701 1.3494101 -0.283755
2.1931601 0.90502697 -0.180144
-0.57359099 -0.45824099 -0.091897398
1.3736399 -0.84132701 -0.0373189
-0.65364897 -0.57243401 -0.085200697
1.42637 -1.08889 0.0154837
