# .PCD v0.7 - Point Cloud Data file format
VERSION 0.7
FIELDS x y z
SIZE 4 4 4
TYPE F F F
COUNT 1 1 1
WIDTH 100
HEIGHT 1
VIEWPOINT 0 0 0 1 0 0 0
POINTS 100
DATA ascii
-0.47281799 0.53692698 -0.0626413
-0.30002701 0.506082 -0.0541621
-0.45684999 0.39545399 -0.047855899
-0.37237 0.43805999 -0.046901401
-0.545766 -0.092690803 -0.014233
-0.427977 0.245956 -0.0260401
-0.064059399 0.037155401 -0.0088370601
-0.0995574 0.17826299 -0.022652
-0.064427704 0.049638599 -0.0108195
-0.38301501 0.405671 -0.049654
-0.19317301 0.31033999 -0.0394876
-0.05996 0.39963999 -0.058907501
-0.0214918 0.23667 -0.0339894
0.0156025 0.52311999 -0.063922897
-0.142051 0.49854901 -0.053143401
-0.097971 0.232912 -0.0279391
-0.055903699 0.46186599 -0.066024996
-0.087319396 0.16316099 -0.0176147
-0.049246699 0.390331 -0.059326399
-0.21915901 0.467262 -0.065110199
-0.0760438 0.101747 -0.0145589
-0.38442501 0.396552 -0.050065301
-0.0078156097 0.120171 -0.0222866
0.00385899 0.0889818 -0.0114417
-0.124519 0.38980901 -0.057257298
-0.62883002 0.641765 -0.066826597
-0.28476399 0.38891399 -0.050552402
-0.090781197 0.130216 -0.022022299
-0.163791 0.163513 -0.0162725
0.104937 0.35881001 -0.0428501
0.108469 0.38888299 -0.063031003
-0.125029 0.323028 -0.042879298
-0.35799199 0.31182301 -0.034790002
-0.18945201 0.24666999 -0.026370101
-0.263713 0.26084599 -0.037200499
-0.031727798 0.31407601 -0.0472463
-0.180168 0.234714 -0.0253512
-0.35153899 0.268132 -0.032389499
-0.17942999 0.243935 -0.0250521
0.097541198 0.39815101 -0.060930401
0.057597902 0.173134 -0.027111201
-0.286138 0.32327601 -0.0381441
0.0166477 0.402751 -0.061075699
-0.358381 0.26238 -0.0301165
-0.27632999 0.320806 -0.036026299
0.031774301 0.32353601 -0.048972402
0.0195159 0.460949 -0.064629897
0.041984402 0.313292 -0.0504038
-0.114165 0.30969 -0.040743299
-0.217467 0.40183601 -0.0529176
0.0080396403 0.462421 -0.067005403
-0.0075511499 0.162816 -0.023314901
-0.206027 0.32396501 -0.038270898
-0.23322301 0.47959501 -0.062279101
0.121247 0.25076801 -0.044614799
0.0048702098 0.052473001 -0.0169264
-0.36883399 0.40324199 -0.047940601
-0.285772 0.31194901 -0.036970802
0.0083214398 0.47107899 -0.065893702
-0.14895201 0.477267 -0.064822502
-0.37362099 0.39282399 -0.049893402
0.0157391 0.024557199 -0.0070619402
0.030819001 0.38800699 -0.062194001
-0.139855 0.47615999 -0.064244904
0.095032103 -0.0268496 -0.0080706496
-0.444004 0.33627501 -0.038998902
-0.276862 0.31130901 -0.037057102
0.0191995 0.46408901 -0.060593799
-0.34813401 0.192286 -0.020638799
-0.251221 0.17988101 -0.020688901
0.05776 0.239163 -0.0411711
-0.18487 0.199645 -0.0285722
-0.40261701 0.49128601 -0.063477799
0.067718498 0.162889 -0.028283101
-0.36866501 0.32825199 -0.037225202
0.0986811 0.457394 -0.063375503
-0.208496 0.38532901 -0.050794199
-0.047906902 0.32367501 -0.045280602
0.131147 0.23947901 -0.045150802
-0.020139201 0.173609 -0.022247
0.092048399 0.019585799 -0.0079137897
-0.114726 0.246353 -0.0283951
-0.139337 0.46418801 -0.063692398
0.087318502 0.46724901 -0.060890201
0.084324002 0.0257043 -0.0067256698
0.163855 0.45398399 -0.060178101
-0.25432101 0.123218 -0.016024901
-0.47528699 0.495215 -0.063235797
-0.070937403 0.476513 -0.064548902
0.042543702 0.24844401 -0.039314002
-0.29515201 0.44030401 -0.0500701
-0.343481 0.261188 -0.0289352
0.119199 0.276326 -0.035448901
0.106903 0.32770199 -0.055596799
-0.141747 0.399021 -0.0549137
-0.411037 0.54890501 -0.069653802
0.195556 0.31279999 -0.056234598
0.196602 0.32446399 -0.056984302
0.068877697 0.100759 -0.017287301
0.164671 0.46145499 -0.058641501
