# .PCD v0.7 - Point Cloud Data file format
VERSION 0.7
FIELDS x y z
SIZE 4 4 4
TYPE F F F
COUNT 1 1 1
WIDTH 100
HEIGHT 1
VIEWPOINT 0 0 0 1 0 0 0
POINTS 100
DATA ascii
0.0144369 0.33146101 -0.107069
0.11019 0.34527299 -0.12
-0.085722104 0.213541 -0.078629501
-0.185541 0.0962153 -0.0515242
0.026619401 0.24259 -0.093134299
-0.075234301 0.118287 -0.062270898
-0.49409601 0.70109898 -0.113719
-0.0080694603 0.45208001 -0.128782
0.045887999 0.104688 -0.069169797
-0.117286 0.44501701 -0.118518
-0.34896401 0.43926099 -0.098613098
-0.086850598 0.106533 -0.061812401
-0.214644 0.33036599 -0.089491397
-0.0180494 0.56826901 -0.154677
-0.24909499 0.55177701 -0.12637299
-0.121968 0.335668 -0.0989208
0.123298 0.24442799 -0.099183999
0.156046 0.129439 -0.079253703
-0.172902 -0.0018298 -0.035756901
-0.102369 0.35465401 -0.103168
-0.28317499 0.77443701 -0.17052899
-0.18405899 0.89058399 -0.20055901
-0.31606001 0.20908099 -0.0609928
-0.40588799 0.83037102 -0.154532
0.166382 0.70139498 -0.19527701
-0.20611501 0.237469 -0.075801797
-0.052262198 -0.0161443 -0.039171599
-0.0071510202 0.361402 -0.113129
0.25468799 0.27802101 -0.12733801
0.0597867 -0.0038197399 -0.048835099
0.111552 0.448167 -0.136345
-0.44727299 0.44695199 -0.050060902
0.148277 0.237664 -0.105892
-0.052035801 0.78441799 -0.191052
-0.36208799 0.58044797 -0.0935148
0.198916 0.47062501 -0.150086
0.071083702 0.582268 -0.160962
-0.151336 0.66766101 -0.15888
0.0605832 0.0105623 -0.052083999
-0.186426 0.77262598 -0.174373
0.075614199 0.67366099 -0.17993
-0.28539899 -0.025257399 -0.023176299
-0.30467501 0.113105 -0.046572998
-0.103133 0.23951399 -0.084533498
-0.41768199 0.086911298 -0.032953601
-0.22001299 0.213742 -0.069798999
0.257976 0.80832797 -0.21713901
0.26813701 0.88145 -0.22860201
0.18175 0.69705701 -0.20136601
0.61857098 -0.13504601 -0.107433
-0.055168599 0.679878 -0.173048
-0.0589085 0.69394398 -0.17202599
0.0212905 0.127611 -0.073902696
0.15551201 0.024745001 -0.061597399
-0.33688599 0.352557 -0.086154602
-0.0533274 -0.124493 -0.020471301
-0.43842599 0.28653899 -0.050291799
0.236838 0.26867801 -0.123212
0.33480701 0.36327901 -0.142251
0.275408 0.81226701 -0.21954399
0.23515899 0.24345399 -0.113996
0.289765 -0.084479101 -0.0350588
0.214986 0.36742601 -0.132411
-0.35065201 0.32954001 -0.081663899
-0.072507702 0.0104098 -0.046583701
0.17293601 0.77983701 -0.206916
0.30162799 0.708794 -0.213412
-0.207508 0.119867 -0.05683
0.054739598 0.79569203 -0.205458
-0.33947 0.237032 -0.066238299
-0.36704701 0.56929803 -0.120266
-0.23421 0.445546 -0.108212
0.514974 -0.0674913 -0.024382601
0.0586305 -0.100529 -0.031106399
-0.14020801 0.47283399 -0.122937
-0.37420601 0.46865699 -0.103087
-0.170839 0.78333998 -0.181015
0.094145201 -0.216914 -0.0055730701
0.209996 0.59558302 -0.187004
0.252673 0.14421301 -0.091247402
0.077779002 -0.123647 -0.0239016
-0.241644 0.35767499 -0.095758602
0.246782 0.36782601 -0.144134
-0.176116 0.703448 -0.166457
0.085422099 0.474601 -0.142114
-0.044652 0.58753002 -0.153456
-0.135075 0.55620199 -0.136721
-0.150344 -0.13536499 -0.0113552
-0.27446699 -0.121124 -0.0077744098
-0.36633801 0.55043 -0.116387
0.14572901 0.92274898 -0.27195999
0.315997 0.51440001 -0.17690399
0.182083 0.69998902 -0.192706
-0.28718299 0.672611 -0.151539
0.29256499 0.58648098 -0.17866801
0.036649499 0.80544502 -0.201175
-0.254675 0.44636399 -0.10825
-0.32211101 0.098097302 -0.044319302
-0.27367699 0.58774298 -0.135463
0.28681201 0.0261792 -0.0594646
