# .PCD v0.7 - Point Cloud Data file format
VERSION 0.7
FIELDS x y z
SIZE 4 4 4
TYPE F F F
COUNT 1 1 1
WIDTH 100
HEIGHT 1
VIEWPOINT 0 0 0 1 0 0 0
POINTS 100
DATA ascii
-1.51781 -1.5993 0.39418301
-1.3933001 -1.27955 0.33461201
-1.47735 -1.2077 0.24460299
-0.43735299 -1.21543 0.73791498
-0.83367401 -1.56618 0.68706101
-1.13588 -1.24684 0.40764901
-1.52335 -2.2184801 0.65801698
-1.3411601 -0.58085603 0.0581608
-0.74829799 -0.89999098 0.469309
-1.79871 -1.89109 0.38833901
-0.51449698 -1.89505 0.96767098
-2.12205 -1.56125 0.100308
-1.77675 -1.62252 0.281322
-0.86849201 -1.83869 0.79501599
-0.92278999 -2.51946 1.04012
-0.403734 -0.79920399 0.58264798
-0.88771701 -2.25647 0.93761498
-0.077803403 -0.853984 0.74523199
-0.78141898 -1.13905 0.53792799
-1.41206 -1.53932 0.42596501
-0.83963102 -2.18805 0.976942
-0.683698 -0.84631997 0.492033
-0.74381202 -1.52925 0.75006598
-1.16706 -1.51994 0.51698101
-2.06216 -0.88631099 -0.17005099
-1.70187 -0.95628798 0.052792199
-1.20409 -2.5366001 0.93457299
-1.0494699 -0.56153297 0.175335
-2.0864201 -1.3118401 0.0128155
-1.08039 -1.58295 0.59041899
-0.027884999 -1.20013 0.92419702
-0.37584001 -1.16281 0.76191002
-1.06005 -1.18388 0.44441101
-0.140793 -1.53424 0.98589599
-0.53213501 -2.1443801 1.05077
-1.6256 -2.5475399 0.736292
-0.62823099 -2.8215699 1.3049099
-1.8696899 -2.56985 0.65890598
-1.45365 -0.94111198 0.154852
0.0671276 -2.7744 1.58874
-0.77166301 -1.8935601 0.86052102
-0.105967 -1.12573 0.83818603
-0.72655201 -1.23312 0.620978
-1.86131 -2.32145 0.53840202
-0.164656 -1.79444 1.07327
-2.2050099 -2.2660999 0.37205899
-0.49018201 -1.50109 0.83126599
-0.65438098 -0.56381398 0.382882
-1.82363 -1.2788 0.117801
-1.75823 -1.22315 0.129593
-1.23666 -2.1954899 0.75932097
-0.28960299 -0.481502 0.51537102
-1.52459 -2.6289501 0.83222598
-1.8802201 -1.96146 0.36685199
-2.2581 -2.25527 0.32731801
-0.59044099 -2.5574 1.1948299
-1.59904 -2.2863901 0.633726
-1.09918 -0.82765001 0.27097201
-0.32349601 -0.86847401 0.63772899
-2.12345 -0.94663501 -0.17814299
-1.4747 -1.93993 0.56233197
-1.04079 -0.92136198 0.35692701
-1.13104 -1.8710099 0.69364703
-2.1582201 -1.97735 0.25677699
-1.19898 -1.93154 0.68354499
-1.37112 -0.86607802 0.17125601
-1.30538 -2.8696001 1.03266
-0.515113 -2.49681 1.23904
-0.393583 -1.5561301 0.89521599
-0.431894 -1.8308001 1.00712
-1.8595999 -1.5573699 0.201185
-1.17576 -2.2784801 0.832789
-1.9567 -2.6444199 0.64225101
-0.0335159 -0.46188399 0.61364198
-2.5211899 -1.93203 0.073348902
-1.55539 -1.87155 0.47729999
-0.99952799 -0.52730501 0.219051
-2.5713899 -1.92752 0.035452198
-1.94575 -2.5776 0.61015999
-2.0095301 -0.62226701 -0.23818401
-0.222752 -2.4703 1.33111
-1.92263 -2.2373099 0.46085
-2.2474999 -1.91816 0.18793499
-2.5070901 -1.30854 -0.205706
-1.90324 -2.6475101 0.677275
-2.4059999 -0.956366 -0.30394599
0.0306038 -0.797373 0.78256297
-0.191586 -2.21295 1.23871
0.269887 -0.76100701 0.86857402
-2.3092301 -2.5810001 0.45311001
-1.40747 -0.50226003 -0.0082864696
-2.2858 -2.33339 0.345332
-1.6351399 -0.260719 -0.220405
-2.23489 -2.67135 0.55290002
-0.482124 -2.2427001 1.14257
-2.2105701 -2.31899 0.38460499
-1.79443 -0.857113 -0.057355698
-1.6840301 -0.54111201 -0.110014
-2.5268199 -1.9901201 0.093496598
-2.6507599 -2.61939 0.35629401
